x,y,z,r,g,b
-0.17982312,-0.2607771,-0.23058343,231.0,188.0,183.0
-0.17982312,-0.25351575,-0.23058343,212.0,181.0,174.0
-0.17982312,-0.2462544,-0.23058343,215.0,180.0,162.0
-0.17982312,-0.23899305,-0.23058343,213.0,178.0,162.0
-0.17982312,-0.2317317,-0.23058343,218.0,179.0,170.0
-0.17982312,-0.22447036,-0.23058343,218.0,173.0,160.0
-0.17982312,-0.21720901,-0.23058343,222.0,187.0,191.0
-0.17982312,-0.20994766,-0.23058343,240.0,192.0,192.0
-0.17982312,-0.20268631,-0.23058343,233.0,218.0,197.0
-0.17982312,-0.19542497,-0.23058343,224.0,193.0,193.0
-0.17982312,-0.18816362,-0.23058343,230.0,190.0,193.0
-0.18061665,-0.18170057,-0.2368964,230.0,179.0,190.0
-0.18061665,-0.17440718,-0.2368964,220.0,184.0,191.0
-0.18061665,-0.1671138,-0.2368964,220.0,180.0,197.0
-0.17982312,-0.15911824,-0.23058343,217.0,182.0,190.0
-0.18061665,-0.152527,-0.2368964,215.0,171.0,187.0
-0.18061665,-0.14523362,-0.2368964,226.0,184.0,189.0
-0.17982312,-0.13733418,-0.23058343,226.0,184.0,196.0
-0.17903653,-0.12950388,-0.22432578,165.0,138.0,164.0
-0.13525516,-0.092373505,0.123976946,10.0,2.0,36.0
-0.13436711,-0.08634119,0.13104188,38.0,28.0,45.0
-0.13349065,-0.08038758,0.13801455,36.0,26.0,22.0
-0.13262554,-0.07451112,0.14489698,37.0,13.0,22.0
-0.1313487,-0.06848985,0.15505481,24.0,13.0,16.0
-0.13092853,-0.06298379,0.15839756,20.0,11.0,21.0
-0.129684,-0.057148404,0.16829836,12.0,15.0,17.0
-0.12886736,-0.051584806,0.17479503,23.0,4.0,23.0
-0.1284629,-0.046235505,0.17801273,26.0,10.0,19.0
-0.12766154,-0.04079205,0.18438792,14.0,13.0,18.0
-0.12726459,-0.0355262,0.1875459,15.0,16.0,9.0
-0.12726459,-0.030387193,0.1875459,21.0,14.0,15.0
-0.12687011,-0.025169922,0.1906842,23.0,12.0,7.0
-0.12647808,-0.019984895,0.19380307,12.0,10.0,9.0
-0.12608844,-0.014831815,0.19690275,36.0,12.0,17.0
-0.1257012,-0.0097103845,0.19998348,22.0,14.0,7.0
-0.1257012,-0.0046345065,0.19998348,24.0,15.0,11.0
-0.12531634,4.4002038E-4,0.20304525,17.0,15.0,9.0
-0.124933824,0.005483568,0.20608836,29.0,9.0,12.0
-0.12455364,0.010496421,0.20911294,41.0,16.0,16.0
-0.12455364,0.015525959,0.20911294,36.0,13.0,11.0
-0.12455364,0.020555498,0.20911294,24.0,15.0,22.0
-0.12455364,0.025585037,0.20911294,20.0,15.0,11.0
-0.12455364,0.030614577,0.20911294,14.0,15.0,10.0
-0.12455364,0.035644114,0.20911294,25.0,22.0,14.0
-0.12455364,0.040673655,0.20911294,14.0,18.0,16.0
-0.12455364,0.045703195,0.20911294,177.0,117.0,92.0
-0.07406597,0.04811322,0.6107677,54.0,26.0,37.0
-0.0735337,0.05073679,0.61500216,63.0,39.0,17.0
-0.07406597,0.054094862,0.6107677,77.0,41.0,36.0
-0.0735337,0.056675445,0.61500216,69.0,46.0,26.0
-0.07340183,0.059537813,0.61605126,70.0,39.0,31.0
-0.073270425,0.06238992,0.61709666,76.0,46.0,41.0
-0.07393218,0.06892425,0.6118321,66.0,36.0,28.0
-0.07393218,0.071909666,0.6118321,63.0,39.0,24.0
-0.07393218,0.074895084,0.6118321,63.0,36.0,22.0
-0.07379887,0.101580374,0.61289257,56.0,33.0,15.0
-0.07340183,0.10399787,0.61605126,60.0,41.0,35.0
-0.073270425,0.10677039,0.61709666,72.0,38.0,11.0
-0.17693974,-0.5557935,-0.15329015,154.0,114.0,122.0
-0.17620741,-0.5466526,-0.1476891,120.0,118.0,118.0
-0.17620741,-0.539812,-0.1476891,105.0,62.0,77.0
-0.17693974,-0.53518647,-0.15329015,126.0,100.0,132.0
-0.17767818,-0.53052235,-0.15893805,142.0,127.0,164.0
-0.17767818,-0.52362466,-0.15893805,126.0,91.0,118.0
-0.17767818,-0.516727,-0.15893805,151.0,124.0,139.0
-0.17693974,-0.5077104,-0.15329015,146.0,133.0,158.0
-0.17693974,-0.5008414,-0.15329015,149.0,128.0,153.0
-0.17767818,-0.4960339,-0.15893805,156.0,129.0,152.0
-0.17767818,-0.48913622,-0.15893805,138.0,122.0,160.0
-0.17767818,-0.48223853,-0.15893805,154.0,128.0,158.0
-0.17767818,-0.47534084,-0.15893805,158.0,141.0,164.0
-0.17693974,-0.46649623,-0.15329015,167.0,146.0,168.0
-0.17693974,-0.4596272,-0.15329015,179.0,151.0,175.0
-0.17693974,-0.4527582,-0.15329015,182.0,150.0,179.0
-0.17767818,-0.44775006,-0.15893805,164.0,149.0,185.0
-0.17767818,-0.44085237,-0.15893805,149.0,116.0,120.0
-0.18069467,-0.44132203,-0.18200898,42.0,35.0,39.0
-0.1830251,-0.43990853,-0.19983292,70.0,5.0,2.0
-0.18461241,-0.4365568,-0.21197307,249.0,211.0,170.0
-0.18461241,-0.4293899,-0.21197307,245.0,231.0,240.0
-0.18381535,-0.42040005,-0.20587683,243.0,229.0,239.0
-0.18461241,-0.41505614,-0.21197307,242.0,227.0,238.0
-0.18461241,-0.40788925,-0.21197307,245.0,237.0,242.0
-0.18461241,-0.40072235,-0.21197307,245.0,242.0,246.0
-0.18461241,-0.39355546,-0.21197307,243.0,237.0,247.0
-0.18461241,-0.3863886,-0.21197307,244.0,235.0,247.0
-0.18541643,-0.3808733,-0.21812248,245.0,235.0,242.0
-0.1862275,-0.37530977,-0.22432578,244.0,238.0,238.0
-0.1862275,-0.36808017,-0.22432578,243.0,231.0,241.0
-0.1862275,-0.3608506,-0.22432578,245.0,227.0,236.0
-0.1862275,-0.353621,-0.22432578,247.0,235.0,237.0
-0.1862275,-0.3463914,-0.22432578,243.0,228.0,233.0
-0.1862275,-0.33916184,-0.22432578,244.0,224.0,238.0
-0.1862275,-0.33193225,-0.22432578,243.0,228.0,241.0
-0.1862275,-0.32470268,-0.22432578,243.0,226.0,230.0
-0.1862275,-0.31747308,-0.22432578,241.0,221.0,229.0
-0.1862275,-0.3102435,-0.22432578,244.0,210.0,222.0
-0.18704568,-0.3043452,-0.23058343,241.0,208.0,223.0
-0.18704568,-0.29708382,-0.23058343,242.0,205.0,208.0
-0.18704568,-0.2898225,-0.23058343,240.0,206.0,218.0
-0.18704568,-0.28256112,-0.23058343,236.0,195.0,197.0
-0.18704568,-0.2752998,-0.23058343,243.0,204.0,201.0
-0.18704568,-0.26803845,-0.23058343,242.0,208.0,224.0
-0.18704568,-0.2607771,-0.23058343,243.0,208.0,223.0
-0.18704568,-0.25351575,-0.23058343,237.0,212.0,209.0
-0.18704568,-0.2462544,-0.23058343,240.0,197.0,203.0
-0.18704568,-0.23899305,-0.23058343,240.0,204.0,200.0
-0.18704568,-0.2317317,-0.23058343,239.0,211.0,218.0
-0.18704568,-0.22447036,-0.23058343,233.0,179.0,181.0
-0.18704568,-0.21720901,-0.23058343,244.0,209.0,218.0
-0.18704568,-0.20994766,-0.23058343,244.0,213.0,212.0
-0.18704568,-0.20268631,-0.23058343,241.0,205.0,208.0
-0.18704568,-0.19542497,-0.23058343,236.0,206.0,204.0
-0.18704568,-0.18816362,-0.23058343,236.0,200.0,204.0
-0.18704568,-0.18090227,-0.23058343,240.0,198.0,193.0
-0.18704568,-0.17364092,-0.23058343,231.0,205.0,211.0
-0.18704568,-0.16637959,-0.23058343,237.0,190.0,204.0
-0.18704568,-0.15911824,-0.23058343,236.0,203.0,211.0
-0.18704568,-0.15185688,-0.23058343,237.0,197.0,203.0
-0.18704568,-0.14459553,-0.23058343,230.0,187.0,201.0
-0.18704568,-0.13733418,-0.23058343,234.0,204.0,201.0
-0.14209637,-0.0988148,0.11320269,96.0,71.0,117.0
-0.14068766,-0.092373505,0.123976946,24.0,10.0,42.0
-0.13976394,-0.08634119,0.13104188,27.0,29.0,29.0
-0.13885228,-0.08038758,0.13801455,30.0,23.0,25.0
-0.13840088,-0.074753344,0.14146698,39.0,14.0,19.0
-0.13795242,-0.06915563,0.14489698,35.0,13.0,17.0
-0.1366243,-0.06318592,0.15505481,24.0,17.0,17.0
-0.13575299,-0.057512857,0.16171885,33.0,14.0,18.0
-0.13489273,-0.051911697,0.16829836,28.0,14.0,25.0
-0.1340433,-0.04638108,0.17479503,27.0,11.0,21.0
-0.13320452,-0.04091968,0.18121028,24.0,17.0,16.0
-0.13237615,-0.0355262,0.1875459,21.0,13.0,19.0
-0.13196583,-0.030293,0.1906842,12.0,13.0,13.0
-0.13155805,-0.025092144,0.19380307,28.0,10.0,25.0
-0.13155805,-0.019984895,0.19380307,20.0,13.0,20.0
-0.13115276,-0.014831815,0.19690275,19.0,13.0,11.0
-0.13115276,-0.0097403,0.19690275,15.0,14.0,11.0
-0.13115276,-0.004648784,0.19690275,26.0,9.0,27.0
-0.13074997,4.4137175E-4,0.19998348,19.0,12.0,16.0
-0.13034965,0.0055003576,0.20304525,27.0,11.0,10.0
-0.12995176,0.010528459,0.20608836,23.0,19.0,14.0
-0.12995176,0.015573351,0.20608836,25.0,18.0,24.0
-0.12995176,0.020618241,0.20608836,22.0,14.0,18.0
-0.12995176,0.025663134,0.20608836,33.0,17.0,12.0
-0.12995176,0.030708024,0.20608836,12.0,17.0,14.0
-0.12995176,0.035752915,0.20608836,32.0,15.0,21.0
-0.12995176,0.040797807,0.20608836,8.0,1.0,11.0
-0.12995176,0.045842696,0.20608836,173.0,128.0,75.0
-0.07607713,0.044557974,0.61813825,55.0,26.0,21.0
-0.07607713,0.047511384,0.61813825,61.0,28.0,25.0
-0.07607713,0.050464794,0.61813825,61.0,30.0,35.0
-0.07607713,0.053418204,0.61813825,67.0,37.0,26.0
-0.07607713,0.056371618,0.61813825,71.0,38.0,26.0
-0.07607713,0.05932503,0.61813825,69.0,26.0,56.0
-0.07607713,0.06227844,0.61813825,69.0,39.0,30.0
-0.07607713,0.06523185,0.61813825,65.0,39.0,7.0
-0.07648717,0.06855276,0.61500216,71.0,34.0,34.0
-0.07607713,0.07113867,0.61813825,66.0,30.0,33.0
-0.07594143,0.07395992,0.61917615,71.0,17.0,21.0
-0.07594143,0.07690806,0.61917615,53.0,23.0,11.0
-0.07594143,0.0798562,0.61917615,64.0,33.0,25.0
-0.07607713,0.08295231,0.61813825,50.0,40.0,26.0
-0.07607713,0.08590572,0.61813825,63.0,42.0,32.0
-0.07580621,0.09442848,0.62021035,61.0,26.0,4.0
-0.07607713,0.097719364,0.61813825,59.0,26.0,46.0
-0.07635,0.10103387,0.61605126,50.0,25.0,16.0
-0.07635,0.10399787,0.61605126,52.0,29.0,27.0
-0.18377207,-0.5557935,-0.15329015,175.0,135.0,124.0
-0.18377207,-0.5489245,-0.15329015,127.0,106.0,112.0
-0.18377207,-0.5420555,-0.15329015,109.0,78.0,93.0
-0.18377207,-0.53518647,-0.15329015,133.0,110.0,131.0
-0.18377207,-0.52831745,-0.15329015,136.0,126.0,164.0
-0.18377207,-0.52144843,-0.15329015,130.0,95.0,97.0
-0.18453903,-0.516727,-0.15893805,146.0,126.0,140.0
-0.18377207,-0.5077104,-0.15329015,153.0,128.0,153.0
-0.18377207,-0.5008414,-0.15329015,149.0,127.0,160.0
-0.18453903,-0.4960339,-0.15893805,154.0,131.0,158.0
-0.18453903,-0.48913622,-0.15893805,151.0,139.0,162.0
-0.18453903,-0.48223853,-0.15893805,153.0,132.0,159.0
-0.18453903,-0.47534084,-0.15893805,160.0,141.0,163.0
-0.18377207,-0.46649623,-0.15329015,168.0,136.0,167.0
-0.18453903,-0.46154544,-0.15893805,177.0,148.0,174.0
-0.18377207,-0.4527582,-0.15329015,176.0,152.0,177.0
-0.18453903,-0.44775006,-0.15893805,159.0,124.0,185.0
-0.18531242,-0.44269997,-0.16463327,148.0,116.0,124.0
-0.187672,-0.44132203,-0.18200898,24.0,5.0,26.0
-0.19174102,-0.44372368,-0.21197307,84.0,1.0,1.0
-0.19257608,-0.43845809,-0.21812248,247.0,207.0,171.0
-0.19174102,-0.4293899,-0.21197307,246.0,232.0,242.0
-0.19174102,-0.422223,-0.21197307,246.0,237.0,245.0
-0.19091317,-0.41326413,-0.20587683,244.0,232.0,240.0
-0.19091317,-0.40612817,-0.20587683,245.0,240.0,243.0
-0.19091317,-0.39899224,-0.20587683,248.0,241.0,243.0
-0.19174102,-0.39355546,-0.21197307,246.0,238.0,245.0
-0.19174102,-0.3863886,-0.21197307,245.0,239.0,245.0
-0.19174102,-0.3792217,-0.21197307,248.0,241.0,243.0
-0.19174102,-0.37205482,-0.21197307,245.0,237.0,243.0
-0.19257608,-0.3664771,-0.21812248,247.0,245.0,248.0
-0.19341847,-0.3608506,-0.22432578,245.0,233.0,241.0
-0.19341847,-0.353621,-0.22432578,244.0,231.0,241.0
-0.19341847,-0.3463914,-0.22432578,244.0,232.0,240.0
-0.19257608,-0.3376847,-0.21812248,242.0,228.0,240.0
-0.19341847,-0.33193225,-0.22432578,244.0,226.0,238.0
-0.19341847,-0.32470268,-0.22432578,244.0,230.0,234.0
-0.19341847,-0.31747308,-0.22432578,243.0,225.0,229.0
-0.19341847,-0.3102435,-0.22432578,242.0,228.0,226.0
-0.19341847,-0.30301392,-0.22432578,243.0,216.0,226.0
-0.19426824,-0.29708382,-0.23058343,244.0,219.0,224.0
-0.19341847,-0.28855473,-0.22432578,245.0,214.0,220.0
-0.19341847,-0.28132516,-0.22432578,244.0,211.0,216.0
-0.19426824,-0.2752998,-0.23058343,244.0,209.0,215.0
-0.19426824,-0.26803845,-0.23058343,242.0,213.0,219.0
-0.19426824,-0.2607771,-0.23058343,244.0,219.0,218.0
-0.19426824,-0.25351575,-0.23058343,241.0,212.0,220.0
-0.19341847,-0.24517724,-0.22432578,244.0,208.0,217.0
-0.19426824,-0.23899305,-0.23058343,243.0,208.0,219.0
-0.19426824,-0.2317317,-0.23058343,243.0,214.0,221.0
-0.19426824,-0.22447036,-0.23058343,241.0,200.0,205.0
-0.19426824,-0.21720901,-0.23058343,243.0,214.0,215.0
-0.19426824,-0.20994766,-0.23058343,241.0,210.0,215.0
-0.19426824,-0.20268631,-0.23058343,234.0,205.0,212.0
-0.19426824,-0.19542497,-0.23058343,237.0,203.0,204.0
-0.19426824,-0.18816362,-0.23058343,238.0,204.0,209.0
-0.19512552,-0.18170057,-0.2368964,240.0,205.0,206.0
-0.19512552,-0.17440718,-0.2368964,243.0,209.0,208.0
-0.19426824,-0.16637959,-0.23058343,238.0,191.0,202.0
-0.19426824,-0.15911824,-0.23058343,239.0,197.0,211.0
-0.19426824,-0.15185688,-0.23058343,236.0,201.0,210.0
-0.19426824,-0.14459553,-0.23058343,233.0,194.0,206.0
-0.14958027,-0.105742894,0.098496914,226.0,205.0,205.0
-0.14857505,-0.099478856,0.105899215,10.0,23.0,89.0
-0.14709231,-0.092988074,0.11681807,49.0,18.0,31.0
-0.14516076,-0.08634119,0.13104188,28.0,32.0,27.0
-0.14421391,-0.08038758,0.13801455,33.0,21.0,29.0
-0.14374508,-0.074753344,0.14146698,33.0,20.0,18.0
-0.1432793,-0.06915563,0.14489698,31.0,16.0,33.0
-0.14235674,-0.06338934,0.15169072,29.0,9.0,34.0
-0.14144596,-0.05769683,0.15839756,27.0,12.0,22.0
-0.1405468,-0.0520767,0.16501904,23.0,13.0,16.0
-0.13965897,-0.046527572,0.17155695,20.0,10.0,15.0
-0.13921924,-0.041177347,0.17479503,27.0,21.0,6.0
-0.13791655,-0.03563701,0.18438792,26.0,19.0,7.0
-0.13706154,-0.030293,0.1906842,28.0,20.0,17.0
-0.13663802,-0.025092144,0.19380307,30.0,15.0,41.0
-0.13621709,-0.01992333,0.19690275,24.0,16.0,31.0
-0.13579874,-0.014786263,0.19998348,23.0,17.0,27.0
-0.13579874,-0.0097103845,0.19998348,22.0,18.0,19.0
-0.13579874,-0.0046345065,0.19998348,30.0,13.0,38.0
-0.13538295,4.4002038E-4,0.20304525,11.0,9.0,18.0
-0.13538295,0.0055003576,0.20304525,30.0,12.0,34.0
-0.13496971,0.010528459,0.20608836,29.0,17.0,12.0
-0.13496971,0.015573351,0.20608836,16.0,21.0,11.0
-0.13496971,0.020618241,0.20608836,19.0,13.0,26.0
-0.13455899,0.025585037,0.20911294,29.0,21.0,35.0
-0.13496971,0.030708024,0.20608836,10.0,15.0,19.0
-0.13496971,0.035752915,0.20608836,34.0,10.0,16.0
-0.13496971,0.040797807,0.20608836,4.0,1.0,10.0
-0.13496971,0.045842696,0.20608836,164.0,111.0,70.0
-0.07887383,0.041530352,0.61917615,46.0,30.0,10.0
-0.078733385,0.044399295,0.62021035,53.0,18.0,19.0
-0.07859344,0.047258038,0.6212409,52.0,25.0,18.0
-0.078733385,0.050285082,0.62021035,51.0,27.0,24.0
-0.078733385,0.053227976,0.62021035,52.0,28.0,12.0
-0.07859344,0.056071028,0.6212409,56.0,26.0,16.0
-0.07887383,0.059219208,0.61917615,58.0,20.0,25.0
-0.078733385,0.062056657,0.62021035,69.0,27.0,20.0
-0.078733385,0.06499955,0.62021035,65.0,27.0,17.0
-0.078453995,0.06770134,0.6222678,62.0,29.0,27.0
-0.078453995,0.07063379,0.6222678,70.0,14.0,33.0
-0.07859344,0.073697,0.6212409,64.0,20.0,28.0
-0.07859344,0.07663466,0.6212409,56.0,26.0,19.0
-0.07859344,0.07957233,0.6212409,60.0,28.0,7.0
-0.07859344,0.08250999,0.6212409,51.0,28.0,23.0
-0.078453995,0.08529604,0.6222678,65.0,26.0,28.0
-0.078453995,0.088228494,0.6222678,57.0,12.0,28.0
-0.07831504,0.090999484,0.623291,52.0,21.0,18.0
-0.078453995,0.09409339,0.6222678,55.0,25.0,17.0
-0.07859344,0.0971983,0.6212409,53.0,28.0,20.0
-0.078733385,0.10031427,0.62021035,51.0,26.0,23.0
-0.078733385,0.10325716,0.62021035,58.0,28.0,34.0
-0.1906044,-0.5557935,-0.15329015,161.0,133.0,122.0
-0.1906044,-0.5489245,-0.15329015,120.0,92.0,130.0
-0.1906044,-0.5420555,-0.15329015,108.0,87.0,120.0
-0.1906044,-0.53518647,-0.15329015,130.0,126.0,127.0
-0.1906044,-0.52831745,-0.15329015,134.0,124.0,157.0
-0.1906044,-0.52144843,-0.15329015,125.0,95.0,99.0
-0.1906044,-0.5145794,-0.15329015,145.0,126.0,154.0
-0.1906044,-0.5077104,-0.15329015,148.0,134.0,157.0
-0.1906044,-0.5008414,-0.15329015,151.0,129.0,160.0
-0.19139989,-0.4960339,-0.15893805,151.0,132.0,162.0
-0.19139989,-0.48913622,-0.15893805,156.0,139.0,160.0
-0.19139989,-0.48223853,-0.15893805,156.0,136.0,172.0
-0.19139989,-0.47534084,-0.15893805,159.0,139.0,171.0
-0.19139989,-0.46844313,-0.15893805,162.0,143.0,167.0
-0.1906044,-0.4596272,-0.15329015,172.0,153.0,172.0
-0.1906044,-0.4527582,-0.15329015,170.0,152.0,173.0
-0.1906044,-0.44588917,-0.15329015,166.0,138.0,190.0
-0.19139989,-0.44085237,-0.15893805,128.0,118.0,129.0
-0.19464932,-0.44132203,-0.18200898,8.0,2.0,13.0
-0.198011,-0.44180787,-0.20587683,87.0,17.0,1.0
-0.19973573,-0.43845809,-0.21812248,251.0,222.0,176.0
-0.19886962,-0.4293899,-0.21197307,246.0,232.0,241.0
-0.198011,-0.42040005,-0.20587683,245.0,235.0,248.0
-0.198011,-0.41326413,-0.20587683,246.0,238.0,244.0
-0.198011,-0.40612817,-0.20587683,245.0,239.0,245.0
-0.198011,-0.39899224,-0.20587683,248.0,251.0,248.0
-0.19886962,-0.39355546,-0.21197307,247.0,251.0,249.0
-0.19973573,-0.3880714,-0.21812248,246.0,244.0,248.0
-0.19886962,-0.3792217,-0.21197307,249.0,253.0,247.0
-0.19886962,-0.37205482,-0.21197307,245.0,244.0,247.0
-0.19886962,-0.36488792,-0.21197307,247.0,243.0,248.0
-0.19973573,-0.359279,-0.21812248,244.0,231.0,244.0
-0.20060945,-0.353621,-0.22432578,244.0,234.0,241.0
-0.20060945,-0.3463914,-0.22432578,244.0,234.0,232.0
-0.19973573,-0.3376847,-0.21812248,246.0,241.0,241.0
-0.19973573,-0.3304866,-0.21812248,244.0,225.0,236.0
-0.20060945,-0.32470268,-0.22432578,242.0,227.0,232.0
-0.20060945,-0.31747308,-0.22432578,244.0,229.0,232.0
-0.20060945,-0.3102435,-0.22432578,242.0,225.0,230.0
-0.20060945,-0.30301392,-0.22432578,243.0,224.0,232.0
-0.2014908,-0.29708382,-0.23058343,243.0,203.0,215.0
-0.2014908,-0.2898225,-0.23058343,243.0,215.0,216.0
-0.20060945,-0.28132516,-0.22432578,243.0,212.0,220.0
-0.19973573,-0.27290183,-0.21812248,244.0,217.0,220.0
-0.2014908,-0.20994766,-0.23058343,243.0,210.0,223.0
-0.2014908,-0.20268631,-0.23058343,243.0,210.0,217.0
-0.2014908,-0.19542497,-0.23058343,241.0,210.0,215.0
-0.20237996,-0.18899396,-0.2368964,244.0,206.0,216.0
-0.20237996,-0.18170057,-0.2368964,241.0,209.0,212.0
-0.2014908,-0.17364092,-0.23058343,236.0,207.0,213.0
-0.2014908,-0.16637959,-0.23058343,240.0,208.0,215.0
-0.2014908,-0.15911824,-0.23058343,242.0,206.0,213.0
-0.20060945,-0.15119264,-0.22432578,241.0,201.0,210.0
-0.15461835,-0.10538639,0.10221052,191.0,177.0,206.0
-0.15409882,-0.099478856,0.105899215,24.0,16.0,46.0
-0.15307017,-0.09329844,0.11320269,36.0,34.0,27.0
-0.15205514,-0.087199986,0.12040937,26.0,30.0,18.0
-0.15006496,-0.08065061,0.1345396,30.0,21.0,40.0
-0.14860618,-0.07451112,0.14489698,35.0,21.0,27.0
-0.1471755,-0.06848985,0.15505481,37.0,17.0,53.0
-0.14670469,-0.06298379,0.15839756,30.0,13.0,24.0
-0.14577208,-0.057330053,0.16501904,28.0,21.0,15.0
-0.14531021,-0.051911697,0.16829836,27.0,16.0,7.0
-0.14394197,-0.046235505,0.17801273,20.0,14.0,29.0
-0.14349161,-0.04091968,0.18121028,35.0,18.0,7.0
-0.14304405,-0.03563701,0.18438792,32.0,13.0,20.0
-0.14259927,-0.030387193,0.1875459,16.0,19.0,16.0
-0.14171799,-0.025092144,0.19380307,28.0,14.0,20.0
-0.1408475,-0.019862141,0.19998348,31.0,20.0,15.0
-0.14041626,-0.014740991,0.20304525,41.0,17.0,33.0
-0.13998766,-0.009651105,0.20608836,23.0,22.0,15.0
-0.13998766,-0.004606214,0.20608836,27.0,15.0,27.0
-0.13998766,4.3867726E-4,0.20608836,30.0,12.0,30.0
-0.13998766,0.005483568,0.20608836,13.0,14.0,13.0
-0.13956165,0.010496421,0.20911294,21.0,13.0,19.0
-0.13956165,0.015525959,0.20911294,20.0,13.0,14.0
-0.13956165,0.020555498,0.20911294,17.0,12.0,12.0
-0.13913824,0.025507415,0.21211922,19.0,17.0,19.0
-0.13871738,0.030429374,0.21510726,21.0,14.0,22.0
-0.13871738,0.035428487,0.21510726,33.0,21.0,19.0
-0.13913824,0.040550254,0.21211922,1.0,4.0,10.0
-0.13998766,0.045842696,0.20608836,120.0,61.0,49.0
-0.08151541,0.041382715,0.6212409,39.0,15.0,11.0
-0.08137078,0.04424174,0.6222678,42.0,11.0,17.0
-0.08137078,0.047174193,0.6222678,40.0,14.0,13.0
-0.08137078,0.05010664,0.6222678,35.0,13.0,21.0
-0.08137078,0.053039093,0.6222678,42.0,21.0,10.0
-0.08137078,0.05597154,0.6222678,44.0,12.0,14.0
-0.08137078,0.058903992,0.6222678,47.0,11.0,26.0
-0.08151541,0.06194635,0.6212409,49.0,12.0,15.0
-0.08137078,0.064768896,0.6222678,46.0,15.0,14.0
-0.08122666,0.06758144,0.623291,47.0,14.0,11.0
-0.08137078,0.07063379,0.6222678,45.0,3.0,19.0
-0.08137078,0.07356624,0.6222678,42.0,13.0,17.0
-0.08151541,0.07663466,0.6212409,34.0,18.0,12.0
-0.08137078,0.07943114,0.6222678,47.0,13.0,3.0
-0.08137078,0.08236359,0.6222678,45.0,13.0,11.0
-0.08137078,0.08529604,0.6222678,45.0,14.0,16.0
-0.08137078,0.088228494,0.6222678,43.0,10.0,8.0
-0.08137078,0.091160946,0.6222678,41.0,8.0,12.0
-0.08137078,0.09409339,0.6222678,43.0,7.0,16.0
-0.08137078,0.09702584,0.6222678,42.0,7.0,10.0
-0.08151541,0.10013596,0.6212409,47.0,18.0,18.0
-0.08151541,0.10307362,0.6212409,59.0,25.0,28.0
-0.08137078,0.1058232,0.6222678,75.0,49.0,33.0
-0.07048983,0.117075674,0.69952244,96.0,57.0,53.0
-0.07048983,0.119615994,0.69952244,76.0,41.0,49.0
-0.19743674,-0.5557935,-0.15329015,171.0,142.0,137.0
-0.19743674,-0.5489245,-0.15329015,122.0,49.0,110.0
-0.19743674,-0.5420555,-0.15329015,121.0,113.0,113.0
-0.19661957,-0.53297144,-0.1476891,136.0,121.0,123.0
-0.19743674,-0.52831745,-0.15329015,124.0,121.0,149.0
-0.19661957,-0.5192902,-0.1476891,123.0,83.0,95.0
-0.19743674,-0.5145794,-0.15329015,150.0,130.0,153.0
-0.19743674,-0.5077104,-0.15329015,149.0,132.0,165.0
-0.19743674,-0.5008414,-0.15329015,152.0,133.0,158.0
-0.19826072,-0.4960339,-0.15893805,150.0,134.0,161.0
-0.19826072,-0.48913622,-0.15893805,154.0,139.0,166.0
-0.19743674,-0.4802343,-0.15329015,155.0,139.0,168.0
-0.19743674,-0.47336525,-0.15329015,176.0,141.0,170.0
-0.19826072,-0.46844313,-0.15893805,166.0,150.0,169.0
-0.19743674,-0.4596272,-0.15329015,176.0,146.0,176.0
-0.19743674,-0.4527582,-0.15329015,189.0,179.0,202.0
-0.19743674,-0.44588917,-0.15329015,162.0,115.0,173.0
-0.19826072,-0.44085237,-0.15893805,114.0,106.0,120.0
-0.20162664,-0.44132203,-0.18200898,14.0,16.0,17.0
-0.20510882,-0.44180787,-0.20587683,94.0,27.0,1.0
-0.20599823,-0.4365568,-0.21197307,252.0,238.0,203.0
-0.20599823,-0.4293899,-0.21197307,246.0,236.0,246.0
-0.20510882,-0.42040005,-0.20587683,245.0,238.0,246.0
-0.20510882,-0.41326413,-0.20587683,246.0,252.0,247.0
-0.20510882,-0.40612817,-0.20587683,245.0,239.0,249.0
-0.20599823,-0.40072235,-0.21197307,246.0,241.0,246.0
-0.20689538,-0.39526948,-0.21812248,248.0,243.0,247.0
-0.20599823,-0.3863886,-0.21197307,248.0,248.0,252.0
-0.20599823,-0.3792217,-0.21197307,249.0,246.0,249.0
-0.20510882,-0.37044847,-0.20587683,248.0,244.0,248.0
-0.20599823,-0.36488792,-0.21197307,249.0,246.0,251.0
-0.20599823,-0.35772106,-0.21197307,248.0,247.0,247.0
-0.20689538,-0.3520809,-0.21812248,245.0,241.0,245.0
-0.2078004,-0.20179972,-0.22432578,243.0,211.0,214.0
-0.20871337,-0.19542497,-0.23058343,242.0,214.0,220.0
-0.20871337,-0.18816362,-0.23058343,242.0,219.0,220.0
-0.20963438,-0.18170057,-0.2368964,242.0,212.0,216.0
-0.20871337,-0.17364092,-0.23058343,240.0,211.0,216.0
-0.20871337,-0.16637959,-0.23058343,242.0,209.0,218.0
-0.20871337,-0.15911824,-0.23058343,239.0,204.0,222.0
-0.1580296,-0.10398409,0.11681807,130.0,160.0,190.0
-0.15698516,-0.097835176,0.123976946,22.0,8.0,41.0
-0.15750565,-0.09267977,0.12040937,28.0,21.0,33.0
-0.15698516,-0.08691183,0.123976946,33.0,13.0,14.0
-0.15595444,-0.08091538,0.13104188,17.0,15.0,22.0
-0.15393306,-0.07451112,0.14489698,28.0,15.0,15.0
-0.15147886,-0.06805306,0.16171885,28.0,12.0,18.0
-0.15099737,-0.0625834,0.16501904,11.0,13.0,35.0
-0.15051894,-0.057148404,0.16829836,21.0,24.0,11.0
-0.1495711,-0.051584806,0.17479503,24.0,16.0,20.0
-0.14863516,-0.04609085,0.18121028,27.0,16.0,32.0
-0.14817156,-0.04079205,0.18438792,25.0,16.0,17.0
-0.14817156,-0.03563701,0.18438792,25.0,13.0,41.0
-0.14725298,-0.030293,0.1906842,34.0,14.0,12.0
-0.14679796,-0.025092144,0.19380307,34.0,15.0,28.0
-0.14544958,-0.01980133,0.20304525,33.0,19.0,21.0
-0.1450056,-0.014695996,0.20608836,34.0,17.0,31.0
-0.1450056,-0.009651105,0.20608836,27.0,17.0,31.0
-0.1450056,-0.004606214,0.20608836,18.0,22.0,19.0
-0.1450056,4.3867726E-4,0.20608836,33.0,18.0,17.0
-0.14456433,0.005466881,0.20911294,25.0,18.0,30.0
-0.14456433,0.010496421,0.20911294,20.0,17.0,31.0
-0.14412573,0.015478855,0.21211922,20.0,16.0,36.0
-0.14412573,0.020493135,0.21211922,10.0,9.0,28.0
-0.1436898,0.025430262,0.21510726,9.0,20.0,23.0
-0.14325649,0.030337613,0.2180773,7.0,6.0,3.0
-0.1436898,0.035428487,0.21510726,12.0,5.0,5.0
-0.14412573,0.040550254,0.21211922,9.0,1.0,3.0
-0.14456433,0.045703195,0.20911294,34.0,1.0,22.0
-0.14456433,0.05073273,0.20911294,148.0,134.0,155.0
-0.08428757,0.04130929,0.6222678,21.0,12.0,25.0
-0.08428757,0.04424174,0.6222678,14.0,14.0,21.0
-0.08428757,0.047174193,0.6222678,20.0,13.0,1.0
-0.08428757,0.05010664,0.6222678,17.0,8.0,7.0
-0.08428757,0.053039093,0.6222678,19.0,12.0,13.0
-0.08428757,0.05597154,0.6222678,16.0,9.0,35.0
-0.08443738,0.059008688,0.6212409,21.0,8.0,13.0
-0.08443738,0.06194635,0.6212409,10.0,12.0,7.0
-0.08443738,0.064884014,0.6212409,8.0,13.0,1.0
-0.08428757,0.06770134,0.6222678,15.0,3.0,5.0
-0.08428757,0.07063379,0.6222678,14.0,7.0,1.0
-0.08428757,0.07356624,0.6222678,8.0,7.0,3.0
-0.08458773,0.07677112,0.62021035,14.0,3.0,5.0
-0.08473862,0.0798562,0.61917615,15.0,7.0,2.0
-0.08473862,0.082804345,0.61917615,9.0,10.0,2.0
-0.08443738,0.08544765,0.6212409,11.0,10.0,2.0
-0.08443738,0.088385314,0.6212409,13.0,6.0,5.0
-0.08443738,0.09132297,0.6212409,16.0,3.0,2.0
-0.08443738,0.09426063,0.6212409,14.0,2.0,1.0
-0.08458773,0.09737137,0.62021035,16.0,4.0,3.0
-0.08458773,0.10031427,0.62021035,23.0,3.0,4.0
-0.08458773,0.10325716,0.62021035,62.0,39.0,17.0
-0.07324173,0.10979222,0.6979792,81.0,58.0,31.0
-0.07335482,0.11251383,0.69720405,95.0,46.0,41.0
-0.07324173,0.11488853,0.6979792,95.0,56.0,45.0
-0.07324173,0.11743668,0.6979792,88.0,50.0,25.0
-0.07324173,0.119984835,0.6979792,75.0,33.0,21.0
-0.07324173,0.122532986,0.6979792,129.0,84.0,92.0
-0.20426907,-0.5557935,-0.15329015,178.0,142.0,136.0
-0.20426907,-0.5489245,-0.15329015,126.0,69.0,92.0
-0.20426907,-0.5420555,-0.15329015,119.0,113.0,125.0
-0.20342363,-0.53297144,-0.1476891,136.0,123.0,124.0
-0.20342363,-0.5261308,-0.1476891,122.0,115.0,144.0
-0.20342363,-0.5192902,-0.1476891,121.0,90.0,96.0
-0.20342363,-0.5124496,-0.1476891,146.0,134.0,152.0
-0.20426907,-0.5077104,-0.15329015,148.0,131.0,156.0
-0.20426907,-0.5008414,-0.15329015,154.0,135.0,150.0
-0.20426907,-0.49397233,-0.15329015,157.0,135.0,150.0
-0.20426907,-0.4871033,-0.15329015,157.0,136.0,153.0
-0.20426907,-0.4802343,-0.15329015,155.0,141.0,167.0
-0.20426907,-0.47336525,-0.15329015,180.0,145.0,170.0
-0.20426907,-0.46649623,-0.15329015,171.0,146.0,176.0
-0.20426907,-0.4596272,-0.15329015,186.0,157.0,171.0
-0.20426907,-0.4527582,-0.15329015,176.0,181.0,190.0
-0.20426907,-0.44588917,-0.15329015,151.0,98.0,166.0
-0.20512158,-0.44085237,-0.15893805,112.0,96.0,125.0
-0.20860398,-0.44132203,-0.18200898,22.0,23.0,9.0
-0.21312682,-0.44372368,-0.21197307,110.0,7.0,1.0
-0.21405503,-0.43845809,-0.21812248,252.0,226.0,206.0
-0.21312682,-0.4293899,-0.21197307,246.0,243.0,245.0
-0.21220665,-0.42040005,-0.20587683,246.0,239.0,243.0
-0.21220665,-0.41326413,-0.20587683,246.0,237.0,240.0
-0.21220665,-0.40612817,-0.20587683,245.0,240.0,239.0
-0.21220665,-0.39899224,-0.20587683,245.0,239.0,244.0
-0.21220665,-0.39185628,-0.20587683,250.0,246.0,246.0
-0.21312682,-0.3863886,-0.21197307,250.0,249.0,247.0
-0.21312682,-0.3792217,-0.21197307,250.0,246.0,247.0
-0.21312682,-0.37205482,-0.21197307,251.0,248.0,247.0
-0.21220665,-0.3633125,-0.20587683,247.0,248.0,250.0
-0.21312682,-0.35772106,-0.21197307,246.0,241.0,245.0
-0.16404396,-0.19259292,0.11320269,244.0,220.0,224.0
-0.16404396,-0.18707655,0.11320269,242.0,218.0,222.0
-0.16349824,-0.18095621,0.11681807,242.0,206.0,218.0
-0.16349824,-0.17545821,0.11681807,243.0,216.0,222.0
-0.21593593,-0.18090227,-0.23058343,243.0,214.0,218.0
-0.21593593,-0.17364092,-0.23058343,245.0,218.0,219.0
-0.21593593,-0.16637959,-0.23058343,241.0,216.0,218.0
-0.21593593,-0.15911824,-0.23058343,239.0,206.0,207.0
-0.16404396,-0.10984752,0.11320269,228.0,203.0,213.0
-0.16349824,-0.10398409,0.11681807,138.0,153.0,191.0
-0.16188271,-0.09751294,0.12752104,11.0,2.0,12.0
-0.16188271,-0.09206925,0.12752104,30.0,14.0,16.0
-0.16135126,-0.08634119,0.13104188,29.0,13.0,25.0
-0.15977767,-0.08012624,0.14146698,29.0,9.0,29.0
-0.15925995,-0.07451112,0.14489698,48.0,23.0,26.0
-0.15722214,-0.06827075,0.15839756,71.0,60.0,89.0
-0.15622267,-0.0625834,0.16501904,51.0,10.0,52.0
-0.15572768,-0.057148404,0.16829836,47.0,23.0,10.0
-0.15474704,-0.051584806,0.17479503,42.0,11.0,4.0
-0.1537787,-0.04609085,0.18121028,29.0,1.0,1.0
-0.1537787,-0.04091968,0.18121028,21.0,3.0,1.0
-0.15329906,-0.03563701,0.18438792,17.0,4.0,1.0
-0.15329906,-0.030481974,0.18438792,17.0,1.0,1.0
-0.1523487,-0.025169922,0.1906842,19.0,7.0,1.0
-0.15187792,-0.019984895,0.19380307,20.0,5.0,1.0
-0.15048288,-0.014740991,0.20304525,23.0,1.0,2.0
-0.15048288,-0.009680654,0.20304525,21.0,8.0,1.0
-0.15048288,-0.004620317,0.20304525,12.0,1.0,1.0
-0.15002355,4.3867726E-4,0.20608836,26.0,1.0,1.0
-0.15002355,0.005483568,0.20608836,40.0,17.0,1.0
-0.14956701,0.010496421,0.20911294,47.0,1.0,2.0
-0.14956701,0.015525959,0.20911294,50.0,1.0,4.0
-0.14956701,0.020555498,0.20911294,54.0,27.0,12.0
-0.14956701,0.025585037,0.20911294,62.0,7.0,48.0
-0.14911324,0.030521695,0.21211922,68.0,32.0,83.0
-0.14956701,0.035644114,0.20911294,78.0,88.0,100.0
-0.15002355,0.040797807,0.20608836,86.0,134.0,114.0
-0.15048288,0.045983057,0.20304525,82.0,136.0,107.0
-0.15002355,0.05088759,0.20608836,149.0,141.0,154.0
-0.087359354,0.041382715,0.6212409,20.0,12.0,14.0
-0.087359354,0.04432038,0.6212409,23.0,10.0,14.0
-0.087359354,0.047258038,0.6212409,16.0,13.0,8.0
-0.08751491,0.050285082,0.62021035,17.0,13.0,18.0
-0.08751491,0.053227976,0.62021035,15.0,13.0,9.0
-0.08751491,0.05617087,0.62021035,7.0,10.0,6.0
-0.08751491,0.059113763,0.62021035,9.0,10.0,6.0
-0.087359354,0.06194635,0.6212409,9.0,12.0,4.0
-0.08751491,0.06499955,0.62021035,10.0,11.0,19.0
-0.087359354,0.067821674,0.6212409,27.0,6.0,11.0
-0.087359354,0.07075934,0.6212409,19.0,4.0,8.0
-0.087359354,0.073697,0.6212409,12.0,4.0,8.0
-0.08767101,0.07690806,0.61917615,16.0,3.0,10.0
-0.087827675,0.0799989,0.61813825,16.0,4.0,1.0
-0.087827675,0.08295231,0.61813825,4.0,7.0,3.0
-0.08767101,0.08575249,0.61917615,9.0,4.0,4.0
-0.08751491,0.08854269,0.62021035,5.0,9.0,3.0
-0.08751491,0.09148559,0.62021035,12.0,2.0,7.0
-0.08751491,0.09442848,0.62021035,1.0,3.0,2.0
-0.08767101,0.09754506,0.61917615,5.0,3.0,8.0
-0.08767101,0.1004932,0.61917615,7.0,3.0,2.0
-0.08767101,0.10344134,0.61917615,49.0,7.0,30.0
-0.08751491,0.106200054,0.62021035,88.0,63.0,32.0
-0.07636496,0.108077206,0.69407916,98.0,64.0,32.0
-0.076246485,0.110473506,0.69486403,99.0,67.0,33.0
-0.07636496,0.11321311,0.69407916,91.0,64.0,45.0
-0.07636496,0.11578106,0.69407916,97.0,55.0,52.0
-0.07601065,0.117799915,0.69642645,79.0,39.0,30.0
-0.075893275,0.1201701,0.69720405,76.0,33.0,1.0
-0.2111014,-0.5557935,-0.15329015,176.0,139.0,131.0
-0.2111014,-0.5489245,-0.15329015,118.0,89.0,79.0
-0.2111014,-0.5420555,-0.15329015,114.0,110.0,134.0
-0.21022768,-0.53297144,-0.1476891,149.0,140.0,142.0
-0.21022768,-0.5261308,-0.1476891,115.0,109.0,137.0
-0.21022768,-0.5192902,-0.1476891,116.0,86.0,111.0
-0.2111014,-0.5145794,-0.15329015,141.0,129.0,156.0
-0.2111014,-0.5077104,-0.15329015,151.0,133.0,153.0
-0.2111014,-0.5008414,-0.15329015,153.0,141.0,158.0
-0.2111014,-0.49397233,-0.15329015,163.0,140.0,156.0
-0.2111014,-0.4871033,-0.15329015,153.0,135.0,158.0
-0.2111014,-0.4802343,-0.15329015,163.0,136.0,156.0
-0.2111014,-0.47336525,-0.15329015,160.0,144.0,158.0
-0.2111014,-0.46649623,-0.15329015,170.0,143.0,169.0
-0.2111014,-0.4596272,-0.15329015,173.0,156.0,172.0
-0.2111014,-0.4527582,-0.15329015,176.0,168.0,197.0
-0.2111014,-0.44588917,-0.15329015,155.0,126.0,158.0
-0.21198243,-0.44085237,-0.15893805,104.0,107.0,114.0
-0.21742696,-0.4451003,-0.19384074,27.0,5.0,4.0
-0.22025543,-0.44372368,-0.21197307,127.0,46.0,2.0
-0.22025543,-0.4365568,-0.21197307,249.0,233.0,230.0
-0.22025543,-0.4293899,-0.21197307,245.0,235.0,239.0
-0.21930447,-0.42040005,-0.20587683,248.0,247.0,252.0
-0.21930447,-0.41326413,-0.20587683,247.0,249.0,247.0
-0.21930447,-0.40612817,-0.20587683,244.0,232.0,243.0
-0.21930447,-0.39899224,-0.20587683,245.0,239.0,245.0
-0.22025543,-0.39355546,-0.21197307,246.0,248.0,247.0
-0.22025543,-0.3863886,-0.21197307,250.0,247.0,251.0
-0.22025543,-0.3792217,-0.21197307,249.0,248.0,252.0
-0.22025543,-0.37205482,-0.21197307,250.0,249.0,249.0
-0.17067014,-0.24386805,0.105899245,243.0,220.0,238.0
-0.17124553,-0.23911808,0.10221055,245.0,234.0,238.0
-0.16896689,-0.21944228,0.11681807,238.0,205.0,220.0
-0.16953085,-0.21465835,0.11320269,243.0,215.0,224.0
-0.16953085,-0.19810927,0.11320269,243.0,221.0,224.0
-0.16896689,-0.19195223,0.11681807,238.0,203.0,200.0
-0.16896689,-0.18645422,0.11681807,241.0,200.0,206.0
-0.16896689,-0.18095621,0.11681807,248.0,215.0,220.0
-0.16896689,-0.17545821,0.11681807,248.0,214.0,229.0
-0.16840668,-0.16939668,0.12040937,248.0,223.0,242.0
-0.16729732,-0.16283713,0.12752104,245.0,217.0,228.0
-0.17009857,-0.11021537,0.10956323,212.0,197.0,203.0
-0.16953085,-0.10433116,0.11320269,101.0,64.0,51.0
-0.16896689,-0.09848608,0.11681807,24.0,26.0,28.0
-0.16785017,-0.092373505,0.123976946,35.0,30.0,32.0
-0.16566043,-0.08577799,0.13801455,41.0,20.0,23.0
-0.16566043,-0.08038758,0.13801455,35.0,17.0,31.0
-0.16512187,-0.074753344,0.14146698,61.0,29.0,21.0
-0.16512187,-0.06938045,0.14146698,111.0,97.0,93.0
-0.16405523,-0.06359408,0.14830482,124.0,170.0,141.0
-0.1630023,-0.057881996,0.15505481,179.0,125.0,85.0
-0.16196276,-0.052242756,0.16171885,189.0,140.0,84.0
-0.16093642,-0.046674993,0.16829836,197.0,152.0,95.0
-0.1604281,-0.041307405,0.17155695,186.0,162.0,110.0
-0.15992297,-0.03597362,0.17479503,183.0,166.0,107.0
-0.1604281,-0.030867076,0.17155695,176.0,140.0,109.0
-0.15992297,-0.025566159,0.17479503,180.0,152.0,113.0
-0.15992297,-0.02036243,0.17479503,182.0,152.0,122.0
-0.15942104,-0.015111123,0.17801273,179.0,146.0,119.0
-0.15892226,-0.009892677,0.18121028,189.0,163.0,114.0
-0.15842657,-0.004706783,0.18438792,194.0,150.0,118.0
-0.15842657,4.4825507E-4,0.18438792,202.0,157.0,117.0
-0.1574444,0.0055685556,0.1906842,204.0,169.0,98.0
-0.15647437,0.010625762,0.19690275,205.0,149.0,98.0
-0.1559938,0.015669007,0.19998348,197.0,137.0,91.0
-0.1559938,0.020744884,0.19998348,182.0,116.0,92.0
-0.1559938,0.025820764,0.19998348,172.0,96.0,86.0
-0.15551619,0.030802045,0.20304525,139.0,75.0,78.0
-0.15551619,0.035862383,0.20304525,117.0,24.0,56.0
-0.1559938,0.041048396,0.19998348,86.0,40.0,46.0
-0.15647437,0.04626637,0.19690275,49.0,22.0,43.0
-0.15647437,0.051357884,0.19690275,14.0,1.0,18.0
-0.09092779,0.04167904,0.61709666,17.0,10.0,8.0
-0.09076531,0.044557974,0.61813825,15.0,14.0,8.0
-0.09076531,0.047511384,0.61813825,13.0,14.0,5.0
-0.09076531,0.050464794,0.61813825,17.0,14.0,7.0
-0.09076531,0.053418204,0.61813825,13.0,17.0,7.0
-0.09060341,0.056271065,0.61917615,20.0,12.0,7.0
-0.09060341,0.059219208,0.61917615,11.0,11.0,10.0
-0.090442084,0.062056657,0.62021035,7.0,12.0,4.0
-0.09060341,0.06511549,0.61917615,8.0,14.0,15.0
-0.09060341,0.06806363,0.61917615,12.0,7.0,9.0
-0.09060341,0.071011774,0.61917615,12.0,7.0,8.0
-0.09060341,0.07395992,0.61917615,11.0,3.0,10.0
-0.09060341,0.07690806,0.61917615,16.0,3.0,7.0
-0.09060341,0.0798562,0.61917615,18.0,5.0,1.0
-0.09076531,0.08295231,0.61813825,3.0,8.0,1.0
-0.09060341,0.08575249,0.61917615,9.0,5.0,1.0
-0.090442084,0.08854269,0.62021035,8.0,9.0,3.0
-0.09060341,0.09164877,0.61917615,5.0,2.0,4.0
-0.09060341,0.094596915,0.61917615,2.0,3.0,3.0
-0.09060341,0.09754506,0.61917615,3.0,5.0,2.0
-0.09060341,0.1004932,0.61917615,4.0,4.0,2.0
-0.09060341,0.10344134,0.61917615,44.0,7.0,23.0
-0.07941273,0.10875309,0.6909153,103.0,62.0,44.0
-0.07916519,0.110990055,0.69250214,94.0,64.0,43.0
-0.079041995,0.113389276,0.6932919,88.0,56.0,49.0
-0.079041995,0.115961224,0.6932919,95.0,53.0,41.0
-0.078919195,0.11834901,0.69407916,84.0,46.0,37.0
-0.07879676,0.12072937,0.69486403,72.0,37.0,23.0
-0.21793373,-0.5557935,-0.15329015,186.0,147.0,122.0
-0.21793373,-0.5489245,-0.15329015,126.0,79.0,83.0
-0.21793373,-0.5420555,-0.15329015,138.0,108.0,128.0
-0.21703175,-0.53297144,-0.1476891,153.0,131.0,141.0
-0.21703175,-0.5261308,-0.1476891,125.0,109.0,128.0
-0.21703175,-0.5192902,-0.1476891,129.0,84.0,127.0
-0.21613719,-0.5103374,-0.14213419,151.0,133.0,153.0
-0.21613719,-0.503525,-0.14213419,142.0,128.0,161.0
-0.21613719,-0.49671263,-0.14213419,152.0,140.0,156.0
-0.21703175,-0.49192786,-0.1476891,157.0,138.0,156.0
-0.21793373,-0.4871033,-0.15329015,159.0,134.0,159.0
-0.21793373,-0.4802343,-0.15329015,163.0,137.0,166.0
-0.21793373,-0.47336525,-0.15329015,166.0,143.0,168.0
-0.21793373,-0.46649623,-0.15329015,175.0,146.0,168.0
-0.21793373,-0.4596272,-0.15329015,176.0,148.0,168.0
-0.21884327,-0.45464775,-0.15893805,160.0,171.0,185.0
-0.21793373,-0.44588917,-0.15329015,144.0,90.0,137.0
-0.21976043,-0.44269997,-0.16463327,87.0,75.0,110.0
-0.22255863,-0.44132203,-0.18200898,18.0,5.0,11.0
-0.2264023,-0.44180787,-0.20587683,128.0,52.0,14.0
-0.2264023,-0.43467194,-0.20587683,250.0,248.0,232.0
-0.2264023,-0.42753598,-0.20587683,245.0,236.0,247.0
-0.2264023,-0.42040005,-0.20587683,247.0,241.0,243.0
-0.2264023,-0.41326413,-0.20587683,247.0,237.0,244.0
-0.2264023,-0.40612817,-0.20587683,247.0,244.0,251.0
-0.2264023,-0.39899224,-0.20587683,248.0,250.0,249.0
-0.22738405,-0.39355546,-0.21197307,247.0,241.0,248.0
-0.22738405,-0.3863886,-0.21197307,250.0,247.0,250.0
-0.2264023,-0.3775844,-0.20587683,251.0,250.0,251.0
-0.17385718,-0.25159338,0.1204094,248.0,241.0,242.0
-0.17443553,-0.24693231,0.1168181,252.0,231.0,248.0
-0.17328267,-0.23983864,0.123976976,254.0,237.0,222.0
-0.17385718,-0.23515405,0.1204094,254.0,222.0,204.0
-0.17271192,-0.22816132,0.12752107,254.0,225.0,190.0
-0.17328267,-0.21799195,0.123976976,254.0,205.0,180.0
-0.17385718,-0.21323493,0.1204094,254.0,219.0,204.0
-0.17328267,-0.2070686,0.123976976,254.0,217.0,196.0
-0.17385718,-0.20227537,0.1204094,204.0,127.0,108.0
-0.17443553,-0.19745024,0.1168181,168.0,1.0,93.0
-0.17443553,-0.19195223,0.1168181,153.0,56.0,39.0
-0.17443553,-0.18645422,0.1168181,157.0,37.0,68.0
-0.17385718,-0.18035625,0.1204094,159.0,45.0,59.0
-0.17328267,-0.17429858,0.123976976,177.0,58.0,88.0
-0.17271192,-0.16828081,0.12752107,225.0,98.0,96.0
-0.17214493,-0.16230255,0.13104191,247.0,212.0,161.0
-0.17214493,-0.15687674,0.13104191,245.0,210.0,212.0
-0.17678793,-0.11095855,0.10221055,1.0,2.0,78.0
-0.17560385,-0.104680546,0.10956326,33.0,35.0,20.0
-0.17443553,-0.09848608,0.1168181,41.0,19.0,26.0
-0.17271192,-0.09206925,0.12752107,39.0,19.0,30.0
-0.17214493,-0.08634119,0.13104191,40.0,17.0,18.0
-0.17102204,-0.08038758,0.13801458,39.0,11.0,24.0
-0.17046607,-0.074753344,0.141467,17.0,14.0,23.0
-0.17046607,-0.06938045,0.141467,4.0,9.0,4.0
-0.16991371,-0.06380015,0.14489698,1.0,3.0,12.0
-0.16991371,-0.05844466,0.14489698,1.0,1.0,11.0
-0.16991371,-0.053089175,0.14489698,5.0,1.0,1.0
-0.1693649,-0.047579516,0.14830482,21.0,24.0,24.0
-0.16720471,-0.041702554,0.16171885,81.0,1.0,39.0
-0.16614515,-0.03620158,0.16829836,102.0,2.0,47.0
-0.16614515,-0.030964876,0.16829836,116.0,32.0,51.0
-0.16562039,-0.02564691,0.17155695,106.0,1.0,55.0
-0.16562039,-0.020426745,0.17155695,99.0,17.0,61.0
-0.1650989,-0.0151587,0.17479503,104.0,31.0,56.0
-0.16458073,-0.009923725,0.17801273,99.0,10.0,52.0
-0.16406581,-0.0047215098,0.18121028,85.0,30.0,44.0
-0.16406581,4.4965756E-4,0.18121028,78.0,28.0,40.0
-0.16355407,0.005603293,0.18438792,34.0,1.0,1.0
-0.16304551,0.010724879,0.1875459,24.0,1.0,2.0
-0.16254012,0.015814714,0.1906842,16.0,3.0,15.0
-0.16203786,0.020873094,0.19380307,8.0,4.0,21.0
-0.16254012,0.026060874,0.1906842,2.0,10.0,14.0
-0.16203786,0.031087592,0.19380307,10.0,9.0,18.0
-0.16203786,0.036194842,0.19380307,9.0,10.0,9.0
-0.16153869,0.041174855,0.19690275,14.0,12.0,11.0
-0.16203786,0.04640934,0.19380307,12.0,17.0,23.0
-0.16203786,0.05151659,0.19380307,19.0,15.0,26.0
-0.16153869,0.056449402,0.19690275,27.0,12.0,11.0
-0.16104257,0.06135191,0.19998348,19.0,14.0,5.0
-0.09420799,0.03885947,0.61500216,16.0,10.0,7.0
-0.093870685,0.04167904,0.61709666,16.0,12.0,16.0
-0.09370295,0.044557974,0.61813825,10.0,10.0,16.0
-0.09370295,0.047511384,0.61813825,9.0,8.0,4.0
-0.09403904,0.0506458,0.61605126,16.0,12.0,14.0
-0.09403904,0.053609803,0.61605126,9.0,12.0,11.0
-0.0935358,0.056271065,0.61917615,14.0,14.0,10.0
-0.0935358,0.059219208,0.61917615,6.0,12.0,23.0
-0.0935358,0.06216735,0.61917615,10.0,9.0,14.0
-0.0935358,0.06511549,0.61917615,10.0,8.0,10.0
-0.0935358,0.06806363,0.61917615,14.0,4.0,9.0
-0.09370295,0.07113867,0.61813825,15.0,8.0,9.0
-0.09370295,0.07409208,0.61813825,11.0,4.0,22.0
-0.09370295,0.07704549,0.61813825,16.0,5.0,11.0
-0.09370295,0.0799989,0.61813825,9.0,5.0,6.0
-0.09370295,0.08295231,0.61813825,7.0,9.0,8.0
-0.09370295,0.08590572,0.61813825,6.0,3.0,1.0
-0.09370295,0.08885913,0.61813825,5.0,5.0,2.0
-0.09370295,0.09181254,0.61813825,3.0,3.0,2.0
-0.09370295,0.09476595,0.61813825,2.0,4.0,5.0
-0.09370295,0.097719364,0.61813825,5.0,4.0,5.0
-0.0935358,0.1004932,0.61917615,5.0,4.0,7.0
-0.0935358,0.10344134,0.61917615,36.0,11.0,11.0
-0.08211132,0.106335334,0.6901181,95.0,51.0,27.0
-0.08198293,0.10875309,0.6909153,95.0,62.0,49.0
-0.08198293,0.111337095,0.6909153,81.0,60.0,49.0
-0.08185497,0.11374328,0.69170994,100.0,53.0,53.0
-0.08198293,0.116505116,0.6909153,94.0,54.0,43.0
-0.08185497,0.118903235,0.69170994,83.0,46.0,29.0
-0.08185497,0.121483214,0.69170994,87.0,42.0,72.0
-0.22476608,-0.5557935,-0.15329015,172.0,144.0,115.0
-0.22476608,-0.5489245,-0.15329015,114.0,86.0,83.0
-0.2238358,-0.539812,-0.1476891,118.0,115.0,128.0
-0.22476608,-0.53518647,-0.15329015,156.0,137.0,146.0
-0.2238358,-0.5261308,-0.1476891,118.0,106.0,128.0
-0.2238358,-0.5192902,-0.1476891,124.0,109.0,121.0
-0.22291319,-0.5103374,-0.14213419,145.0,131.0,149.0
-0.2238358,-0.50560904,-0.1476891,145.0,128.0,153.0
-0.2238358,-0.49876845,-0.1476891,150.0,130.0,146.0
-0.22291319,-0.48990023,-0.14213419,159.0,137.0,156.0
-0.2238358,-0.48508728,-0.1476891,162.0,138.0,166.0
-0.22291319,-0.47627544,-0.14213419,165.0,145.0,166.0
-0.22476608,-0.47336525,-0.15329015,166.0,141.0,171.0
-0.22476608,-0.46649623,-0.15329015,171.0,147.0,169.0
-0.22476608,-0.4596272,-0.15329015,171.0,149.0,169.0
-0.22476608,-0.4527582,-0.15329015,162.0,159.0,182.0
-0.22476608,-0.44588917,-0.15329015,151.0,107.0,129.0
-0.22665003,-0.44269997,-0.16463327,83.0,86.0,99.0
-0.23051432,-0.4432031,-0.18789959,33.0,1.0,12.0
-0.2324963,-0.43990853,-0.19983292,130.0,73.0,46.0
-0.23350012,-0.43467194,-0.20587683,250.0,235.0,236.0
-0.2324963,-0.425698,-0.19983292,247.0,240.0,245.0
-0.23350012,-0.42040005,-0.20587683,246.0,240.0,246.0
-0.23350012,-0.41326413,-0.20587683,248.0,243.0,247.0
-0.23350012,-0.40612817,-0.20587683,248.0,245.0,248.0
-0.23350012,-0.39899224,-0.20587683,249.0,246.0,249.0
-0.23350012,-0.39185628,-0.20587683,248.0,245.0,247.0
-0.23451264,-0.3863886,-0.21197307,248.0,243.0,248.0
-0.18233031,-0.29483962,0.10221055,247.0,242.0,247.0
-0.17871517,-0.27260867,0.123976976,249.0,226.0,233.0
-0.17871517,-0.267147,0.123976976,245.0,236.0,232.0
-0.17638367,-0.25827143,0.13801458,223.0,195.0,211.0
-0.17696083,-0.25370845,0.13453963,185.0,143.0,139.0
-0.17696083,-0.2483004,0.13453963,168.0,110.0,115.0
-0.17696083,-0.24289235,0.13453963,149.0,62.0,39.0
-0.17696083,-0.23748429,0.13453963,115.0,1.0,1.0
-0.17754176,-0.2328381,0.13104191,80.0,1.0,1.0
-0.17696083,-0.22666818,0.13453963,91.0,4.0,1.0
-0.17754176,-0.22198647,0.13104191,91.0,1.0,1.0
-0.17754176,-0.21656066,0.13104191,92.0,1.0,1.0
-0.17754176,-0.21113485,0.13104191,122.0,38.0,1.0
-0.17696083,-0.20503594,0.13453963,184.0,10.0,22.0
-0.17754176,-0.20028323,0.13104191,147.0,38.0,71.0
-0.17812653,-0.19549923,0.12752107,172.0,86.0,89.0
-0.17812653,-0.19005553,0.12752107,188.0,79.0,86.0
-0.17812653,-0.18461186,0.12752107,190.0,102.0,98.0
-0.17812653,-0.17916818,0.12752107,181.0,82.0,84.0
-0.17754176,-0.17315418,0.13104191,181.0,79.0,79.0
-0.17696083,-0.16717954,0.13453963,178.0,83.0,93.0
-0.17696083,-0.16177148,0.13453963,187.0,90.0,83.0
-0.17638367,-0.15585345,0.13801458,228.0,176.0,120.0
-0.17638367,-0.15046303,0.13801458,244.0,203.0,214.0
-0.17638367,-0.10733967,0.13801458,10.0,1.0,24.0
-0.17754176,-0.10261862,0.13104191,18.0,9.0,14.0
-0.17754176,-0.09719281,0.13104191,15.0,3.0,3.0
-0.17638367,-0.09116841,0.13801458,21.0,3.0,13.0
-0.17638367,-0.08577799,0.13801458,29.0,4.0,10.0
-0.17581028,-0.08012624,0.141467,44.0,1.0,20.0
-0.17581028,-0.074753344,0.141467,53.0,28.0,20.0
-0.17581028,-0.06938045,0.141467,56.0,35.0,6.0
-0.17581028,-0.06400755,0.141467,56.0,67.0,35.0
-0.17581028,-0.058634657,0.141467,59.0,43.0,42.0
-0.17581028,-0.05326176,0.141467,59.0,42.0,33.0
-0.17581028,-0.047888864,0.141467,56.0,46.0,50.0
-0.17467459,-0.042241327,0.14830485,13.0,5.0,45.0
-0.17189854,-0.03631665,0.16501907,9.0,8.0,35.0
-0.17135388,-0.030964876,0.1682984,12.0,9.0,15.0
-0.17081267,-0.02564691,0.17155698,11.0,6.0,10.0
-0.17081267,-0.020426745,0.17155698,13.0,9.0,23.0
-0.17027485,-0.0151587,0.17479503,9.0,20.0,9.0
-0.16974042,-0.009923725,0.17801273,11.0,9.0,13.0
-0.16974042,-0.0047363285,0.17801273,15.0,4.0,6.0
-0.16920935,4.4965756E-4,0.18121028,15.0,11.0,13.0
-0.16868158,0.005603293,0.18438792,23.0,8.0,5.0
-0.16815707,0.010724879,0.1875459,25.0,12.0,5.0
-0.16763584,0.015814714,0.1906842,23.0,14.0,13.0
-0.16763584,0.020937795,0.1906842,18.0,12.0,21.0
-0.16763584,0.026060874,0.1906842,14.0,14.0,14.0
-0.16711783,0.031087592,0.19380307,23.0,10.0,12.0
-0.16711783,0.036194842,0.19380307,26.0,16.0,17.0
-0.16711783,0.04130209,0.19380307,22.0,14.0,29.0
-0.16711783,0.04640934,0.19380307,20.0,12.0,27.0
-0.16711783,0.05151659,0.19380307,23.0,14.0,40.0
-0.16660301,0.056449402,0.19690275,31.0,14.0,20.0
-0.16660301,0.061540917,0.19690275,20.0,14.0,20.0
-0.16660301,0.066632435,0.19690275,24.0,10.0,42.0
-0.16660301,0.071723945,0.19690275,18.0,12.0,19.0
-0.16660301,0.07681546,0.19690275,16.0,12.0,14.0
-0.16660301,0.08190698,0.19690275,17.0,12.0,9.0
-0.09716145,0.05073679,0.61500216,14.0,9.0,6.0
-0.16407573,0.09069305,0.21211922,15.0,14.0,10.0
-0.16357945,0.09541784,0.21510726,7.0,10.0,6.0
-0.16357945,0.10041696,0.21510726,9.0,10.0,6.0
-0.16357945,0.105416074,0.21510726,9.0,12.0,4.0
-0.16357945,0.11041518,0.21510726,10.0,11.0,19.0
-0.16457504,0.11611674,0.20911294,18.0,7.0,8.0
-0.16457504,0.12114628,0.20911294,12.0,7.0,4.0
-0.16457504,0.12617582,0.20911294,11.0,8.0,4.0
-0.16457504,0.13120535,0.20911294,12.0,4.0,12.0
-0.16457504,0.1362349,0.20911294,13.0,6.0,2.0
-0.16507739,0.14169563,0.20608836,7.0,8.0,2.0
-0.16711783,0.14855431,0.19380307,7.0,5.0,6.0
-0.16763584,0.15413786,0.1906842,5.0,7.0,3.0
-0.16763584,0.15926094,0.1906842,9.0,4.0,18.0
-0.16763584,0.16438402,0.1906842,4.0,3.0,1.0
-0.16660301,0.16846274,0.19690275,5.0,3.0,14.0
-0.08481836,0.10909422,0.6893184,95.0,56.0,57.0
-0.08481836,0.111686334,0.6893184,90.0,63.0,46.0
-0.0849516,0.114457965,0.6885162,93.0,55.0,58.0
-0.08481836,0.11687057,0.6893184,88.0,54.0,39.0
-0.08468555,0.119275615,0.6901181,82.0,38.0,22.0
-0.084553145,0.12167314,0.6909153,97.0,66.0,98.0
-0.2315984,-0.5557935,-0.15329015,142.0,93.0,110.0
-0.2315984,-0.5489245,-0.15329015,114.0,100.0,101.0
-0.23063986,-0.539812,-0.1476891,126.0,113.0,118.0
-0.23063986,-0.53297144,-0.1476891,150.0,139.0,151.0
-0.2296892,-0.5239622,-0.14213419,117.0,101.0,116.0
-0.2296892,-0.5171498,-0.14213419,126.0,108.0,122.0
-0.2296892,-0.5103374,-0.14213419,141.0,129.0,152.0
-0.23063986,-0.50560904,-0.1476891,145.0,123.0,151.0
-0.23063986,-0.49876845,-0.1476891,152.0,131.0,152.0
-0.23063986,-0.49192786,-0.1476891,158.0,130.0,160.0
-0.23063986,-0.48508728,-0.1476891,163.0,141.0,171.0
-0.2296892,-0.47627544,-0.14213419,169.0,146.0,167.0
-0.23063986,-0.47140607,-0.1476891,172.0,158.0,171.0
-0.23063986,-0.4645655,-0.1476891,177.0,151.0,187.0
-0.2315984,-0.4596272,-0.15329015,184.0,152.0,177.0
-0.2315984,-0.4527582,-0.15329015,161.0,147.0,182.0
-0.23063986,-0.4440437,-0.1476891,147.0,118.0,122.0
-0.23353964,-0.44269997,-0.16463327,54.0,52.0,86.0
