x,y,z,r,g,b
0.083649635,0.05526655,0.57366365,140.0,103.0,133.0
0.08690423,0.06273131,0.57382965,132.0,91.0,130.0
0.08690423,0.065335676,0.57382965,127.0,97.0,120.0
0.08771145,0.06783316,0.57387084,141.0,110.0,133.0
0.088516176,-0.05429417,0.5764942,138.0,96.0,123.0
0.089318395,-0.0516169,0.57653105,135.0,95.0,116.0
0.08771145,-0.04917905,0.5764572,138.0,106.0,114.0
0.088516176,-0.04650561,0.5764942,145.0,106.0,122.0
0.08528209,-0.04418706,0.57634556,146.0,113.0,133.0
0.08771145,-0.041378237,0.5764572,140.0,103.0,121.0
0.088516176,-0.03871705,0.5764942,148.0,106.0,103.0
0.08771145,-0.03617769,0.5764572,148.0,106.0,118.0
0.088516176,-0.033524677,0.5764942,152.0,109.0,128.0
0.09170991,-0.028155394,0.57664096,145.0,104.0,119.0
0.089318395,-0.025695752,0.57653105,147.0,122.0,136.0
0.088516176,-0.01535137,0.5764942,138.0,97.0,101.0
0.08771145,-0.012775251,0.5764572,138.0,104.0,103.0
0.08771145,-0.010174979,0.5764572,129.0,94.0,108.0
0.088516176,-0.0075628096,0.5764942,131.0,99.0,120.0
0.089318395,-0.004958833,0.57653105,130.0,94.0,117.0
0.09011805,-0.0023630122,0.5765678,119.0,87.0,112.0
0.09011805,2.2504377E-4,0.5765678,128.0,87.0,99.0
0.088516176,0.0028219374,0.5764942,128.0,88.0,111.0
0.089318395,0.008001741,0.57653105,132.0,94.0,104.0
0.088516176,0.010610498,0.5764942,125.0,96.0,114.0
0.089318395,0.0131859705,0.57653105,139.0,98.0,121.0
0.09011805,0.01575338,0.5765678,152.0,101.0,132.0
0.09011805,0.018341435,0.5765678,135.0,101.0,119.0
0.09011805,0.020929491,0.5765678,133.0,101.0,121.0
0.09091526,0.023480777,0.5766044,121.0,95.0,111.0
0.09091526,0.026064787,0.5766044,126.0,96.0,112.0
0.09091526,0.028648796,0.5766044,128.0,89.0,99.0
0.09250212,0.031135451,0.5766774,129.0,94.0,109.0
0.09170991,0.03376403,0.57664096,128.0,91.0,114.0
0.09011805,0.036457825,0.5765678,128.0,94.0,109.0
0.08771145,0.039230175,0.5764572,125.0,95.0,104.0
0.08771145,0.041830447,0.5764572,121.0,86.0,106.0
0.09011805,0.04681005,0.5765678,108.0,75.0,93.0
0.09011805,0.049398106,0.5765678,109.0,76.0,102.0
0.09170991,0.051823862,0.57664096,146.0,94.0,111.0
0.09091526,0.05448889,0.5766044,143.0,121.0,131.0
0.09011805,0.062338386,0.5765678,128.0,96.0,131.0
0.09091526,0.06482493,0.5766044,129.0,92.0,127.0
0.09011805,0.0675145,0.5765678,134.0,98.0,132.0
0.09091526,0.069992945,0.5766044,132.0,117.0,139.0
0.09011805,-0.056712188,0.57914203,136.0,103.0,114.0
0.09091526,-0.054039508,0.57917464,135.0,97.0,123.0
0.09250212,-0.051295105,0.57923955,134.0,98.0,120.0
0.09329188,-0.048643336,0.57927185,134.0,102.0,112.0
0.09329188,-0.046071388,0.57927185,134.0,101.0,125.0
0.09091526,-0.04370347,0.57917464,141.0,109.0,120.0
0.09091526,-0.04111946,0.57917464,130.0,102.0,121.0
0.09170991,-0.038475297,0.5792072,142.0,101.0,121.0
0.09091526,-0.03595144,0.57917464,141.0,106.0,104.0
0.09091526,-0.033367433,0.57917464,140.0,106.0,110.0
0.09170991,-0.030735372,0.5792072,139.0,100.0,121.0
0.09329188,-0.028067766,0.57927185,134.0,99.0,129.0
0.09329188,-0.02549582,0.57927185,139.0,104.0,80.0
0.09091526,-0.015279365,0.57917464,129.0,95.0,102.0
0.09250212,-0.012655783,0.57923955,137.0,97.0,122.0
0.09407914,-0.010048506,0.5793041,124.0,94.0,113.0
0.09329188,-0.007492196,0.57927185,125.0,96.0,111.0
0.09250212,-0.0049279183,0.57923955,126.0,88.0,101.0
0.09250212,-0.0023519634,0.57923955,125.0,89.0,125.0
0.09564644,2.2260373E-4,0.5793682,129.0,91.0,111.0
0.09486401,0.0027869155,0.57933617,128.0,93.0,131.0
0.09407914,0.007927147,0.5793041,134.0,95.0,111.0
0.09011805,0.010577268,0.57914203,133.0,101.0,114.0
0.09250212,0.013103766,0.57923955,145.0,117.0,128.0
0.09407914,0.015630998,0.5793041,129.0,103.0,132.0
0.09407914,0.018198948,0.5793041,131.0,97.0,121.0
0.09407914,0.020766897,0.5793041,133.0,102.0,123.0
0.09407914,0.023334848,0.5793041,127.0,96.0,115.0
0.09486401,0.025862614,0.57933617,122.0,90.0,114.0
0.09329188,0.028515052,0.57927185,130.0,97.0,118.0
0.09486401,0.030990547,0.57933617,127.0,87.0,103.0
0.09564644,0.033502538,0.5793682,127.0,95.0,133.0
0.09642643,0.036006764,0.5794001,119.0,86.0,103.0
0.09642643,0.038562797,0.5794001,123.0,91.0,97.0
0.09564644,0.04118252,0.5793682,118.0,84.0,106.0
0.09407914,0.049014352,0.5793041,104.0,73.0,100.0
0.09407914,0.051582303,0.5793041,111.0,73.0,96.0
0.09564644,0.061662484,0.5793682,130.0,103.0,124.0
0.09486401,0.06432211,0.57933617,128.0,84.0,117.0
0.09486401,0.066886075,0.57933617,133.0,104.0,121.0
0.09407914,0.06955795,0.5793041,136.0,107.0,120.0
0.09407914,-0.056271613,0.58185834,139.0,110.0,118.0
0.09486401,-0.053620346,0.5818865,134.0,93.0,114.0
0.09564644,-0.050977297,0.58191454,136.0,99.0,121.0
0.09564644,-0.0484173,0.58191454,138.0,104.0,120.0
0.09642643,-0.04578639,0.5819425,143.0,112.0,124.0
0.09564644,-0.04329731,0.58191454,139.0,107.0,116.0
0.09486401,-0.040800516,0.5818865,139.0,99.0,115.0
0.09564644,-0.038177323,0.58191454,151.0,112.0,129.0
0.09486401,-0.035672583,0.5818865,129.0,107.0,128.0
0.09486401,-0.033108614,0.5818865,142.0,110.0,125.0
0.09486401,-0.030544648,0.5818865,144.0,98.0,129.0
0.09407914,-0.028024158,0.58185834,149.0,118.0,137.0
0.09564644,-0.025377346,0.58191454,146.0,109.0,146.0
0.09720403,-0.022746885,0.5819704,148.0,118.0,129.0
0.09797919,-0.02016366,0.58199817,125.0,100.0,129.0
0.09720403,-0.017642707,0.5819704,136.0,95.0,114.0
0.09642643,-0.015113956,0.5819425,135.0,100.0,107.0
0.09642643,-0.01255792,0.5819425,134.0,97.0,107.0
0.09720403,-0.00998644,0.5819704,130.0,91.0,99.0
0.09720403,-0.007434351,0.5819704,131.0,92.0,103.0
0.09720403,-0.0048822616,0.5819704,137.0,97.0,109.0
0.09642643,-0.0023337766,0.5819425,132.0,90.0,112.0
0.09720403,2.2191627E-4,0.5819704,133.0,92.0,111.0
0.09720403,0.0027740053,0.5819704,131.0,92.0,116.0
0.09875202,0.0053096963,0.5820259,130.0,93.0,105.0
0.09720403,0.007878183,0.5819704,137.0,93.0,98.0
0.09952241,0.010382178,0.5820535,140.0,98.0,108.0
0.09875202,0.012942391,0.5820259,138.0,106.0,115.0
0.09797919,0.0155105,0.58199817,132.0,95.0,123.0
0.09797919,0.018058656,0.58199817,134.0,100.0,111.0
0.09797919,0.02060681,0.58199817,146.0,100.0,123.0
0.09797919,0.023154965,0.58199817,132.0,103.0,124.0
0.09875202,0.02566355,0.5820259,124.0,99.0,113.0
0.09875202,0.02820778,0.5820259,114.0,80.0,110.0
0.09797919,0.030799428,0.58199817,101.0,71.0,103.0
0.09797919,0.03334758,0.58199817,116.0,80.0,105.0
0.09875202,0.035840478,0.5820259,121.0,88.0,102.0
0.09875202,0.03838471,0.5820259,115.0,87.0,109.0
0.09875202,0.04092894,0.5820259,117.0,90.0,100.0
0.09952241,0.043406356,0.5820535,123.0,89.0,116.0
0.09952241,0.048487,0.5820535,96.0,77.0,114.0
0.09952241,0.05102732,0.5820535,84.0,58.0,95.0
0.09952241,0.061188605,0.5820535,119.0,103.0,122.0
0.09952241,0.06372893,0.5820535,147.0,99.0,119.0
0.09952241,0.06626925,0.5820535,134.0,90.0,114.0
0.10029048,0.06870397,0.582081,143.0,99.0,118.0
0.09720403,-0.05847613,0.58450884,181.0,132.0,112.0
0.09720403,-0.055924043,0.58450884,146.0,113.0,115.0
0.09720403,-0.05337195,0.58450884,126.0,95.0,109.0
0.09797919,-0.050741516,0.58453274,137.0,98.0,116.0
0.09797919,-0.04819336,0.58453274,133.0,102.0,114.0
0.09720403,-0.045715686,0.58450884,140.0,102.0,117.0
0.09720403,-0.043163598,0.58450884,134.0,100.0,120.0
0.09720403,-0.04061151,0.58450884,138.0,99.0,122.0
0.09720403,-0.038059417,0.58450884,140.0,98.0,125.0
0.09720403,-0.03550733,0.58450884,141.0,113.0,120.0
0.09797919,-0.032904435,0.58453274,147.0,103.0,110.0
0.09797919,-0.030356279,0.58453274,143.0,98.0,120.0
0.09952241,-0.027722642,0.58458024,136.0,96.0,106.0
0.09797919,-0.02525997,0.58453274,140.0,106.0,128.0
0.09875202,-0.022676852,0.5845565,135.0,94.0,125.0
0.09875202,-0.02013262,0.5845565,126.0,81.0,106.0
0.09952241,-0.017561356,0.58458024,133.0,95.0,108.0
0.09875202,-0.015044157,0.5845565,141.0,97.0,119.0
0.09875202,-0.012499926,0.5845565,132.0,89.0,105.0
0.09952241,-0.009940392,0.58458024,133.0,92.0,95.0
0.10029048,-0.0073887142,0.5846039,142.0,89.0,98.0
0.09952241,-0.0048597497,0.58458024,140.0,101.0,101.0
0.09875202,-0.0023229986,0.5845565,131.0,97.0,105.0
0.09952241,2.2089301E-4,0.58458024,136.0,94.0,101.0
0.09952241,0.0027612143,0.58458024,131.0,93.0,97.0
0.10029048,0.0052933996,0.5846039,127.0,87.0,93.0
0.10029048,0.007829823,0.5846039,131.0,94.0,107.0
0.10105619,0.010350361,0.5846275,131.0,89.0,110.0
0.10105619,0.012882897,0.5846275,135.0,95.0,110.0
0.10105619,0.015415434,0.5846275,131.0,97.0,120.0
0.10105619,0.01794797,0.5846275,131.0,100.0,116.0
0.10029048,0.020511936,0.5846039,132.0,87.0,124.0
0.10105619,0.023013042,0.5846275,129.0,92.0,114.0
0.101819575,0.025506493,0.58465105,130.0,95.0,109.0
0.101819575,0.028035155,0.58465105,127.0,98.0,131.0
0.10105619,0.03061065,0.5846275,115.0,97.0,104.0
0.10105619,0.033143185,0.5846275,112.0,76.0,99.0
0.10105619,0.035675723,0.5846275,123.0,89.0,85.0
0.10105619,0.03820826,0.5846275,129.0,89.0,130.0
0.10105619,0.040740795,0.5846275,129.0,93.0,109.0
0.10105619,0.043273333,0.5846275,119.0,91.0,104.0
0.10029048,0.045876164,0.5846039,112.0,88.0,113.0
0.10029048,0.048412587,0.5846039,111.0,87.0,112.0
0.10029048,0.05094901,0.5846039,108.0,97.0,108.0
0.10105619,0.053403478,0.5846275,105.0,76.0,105.0
0.10105619,0.055936012,0.5846275,107.0,82.0,95.0
0.10105619,0.05846855,0.5846275,109.0,86.0,106.0
0.10029048,0.0610947,0.5846039,117.0,90.0,118.0
0.10105619,0.06353362,0.5846275,118.0,87.0,111.0
0.101819575,0.06596508,0.58465105,128.0,91.0,116.0
0.101819575,0.06849374,0.58465105,134.0,99.0,114.0
0.09564644,-0.056097288,0.58700716,157.0,118.0,101.0
0.09564644,-0.05353729,0.58700716,125.0,88.0,97.0
0.09642643,-0.05089846,0.58702725,136.0,101.0,120.0
0.09720403,-0.048267774,0.5870473,134.0,102.0,117.0
0.09797919,-0.045645207,0.58706725,138.0,105.0,117.0
0.09875202,-0.043030705,0.58708715,135.0,96.0,116.0
0.09797919,-0.0405489,0.58706725,137.0,98.0,120.0
0.09797919,-0.038000744,0.58706725,131.0,96.0,120.0
0.09642643,-0.035562243,0.58702725,132.0,102.0,99.0
0.09564644,-0.033057332,0.58700716,136.0,100.0,97.0
0.09642643,-0.03045017,0.58702725,141.0,103.0,119.0
0.09642643,-0.027894136,0.58702725,136.0,100.0,123.0
0.09720403,-0.025298974,0.5870473,144.0,107.0,130.0
0.09797919,-0.022711815,0.58706725,137.0,102.0,115.0
0.09875202,-0.02013262,0.58708715,130.0,94.0,108.0
0.09952241,-0.017561356,0.587107,130.0,88.0,113.0
0.09875202,-0.015044157,0.58708715,131.0,96.0,121.0
0.09952241,-0.012480713,0.587107,124.0,88.0,108.0
0.09952241,-0.009940392,0.587107,113.0,85.0,101.0
0.09952241,-0.0074000712,0.587107,130.0,82.0,97.0
0.09952241,-0.0048597497,0.587107,131.0,90.0,99.0
0.09875202,-0.0023229986,0.58708715,130.0,97.0,102.0
0.09875202,2.2123304E-4,0.58708715,128.0,96.0,99.0
0.09875202,0.0027654648,0.58708715,124.0,92.0,101.0
0.09952241,0.0053015356,0.587107,121.0,74.0,87.0
0.10029048,0.007829823,0.5871268,133.0,91.0,106.0
0.10105619,0.010350361,0.5871465,124.0,88.0,99.0
0.10105619,0.012882897,0.5871465,124.0,86.0,97.0
0.10105619,0.015415434,0.5871465,151.0,101.0,113.0
0.10105619,0.01794797,0.5871465,117.0,81.0,105.0
0.10105619,0.020480506,0.5871465,134.0,87.0,94.0
0.10105619,0.023013042,0.5871465,117.0,86.0,98.0
0.10258061,0.02546753,0.5871858,108.0,63.0,68.0
0.10105619,0.028078115,0.5871465,145.0,96.0,119.0
0.10105619,0.03061065,0.5871465,123.0,97.0,108.0
0.10105619,0.033143185,0.5871465,117.0,77.0,96.0
0.101819575,0.03562114,0.5871662,117.0,85.0,96.0
0.101819575,0.0381498,0.5871662,122.0,95.0,105.0
0.10105619,0.040740795,0.5871465,122.0,89.0,109.0
0.10029048,0.04333974,0.5871268,124.0,88.0,102.0
0.09952241,0.045946676,0.587107,126.0,103.0,112.0
0.09952241,0.048487,0.587107,117.0,87.0,110.0
0.10029048,0.05094901,0.5871268,118.0,90.0,108.0
0.10105619,0.053403478,0.5871465,112.0,82.0,104.0
0.10105619,0.055936012,0.5871465,109.0,79.0,85.0
0.10105619,0.05846855,0.5871465,113.0,84.0,105.0
0.10029048,0.0610947,0.5871268,114.0,90.0,115.0
0.10105619,0.06353362,0.5871465,119.0,88.0,99.0
0.101819575,0.06596508,0.5871662,131.0,91.0,110.0
0.101819575,0.06849374,0.5871662,135.0,100.0,116.0
0.09564644,-0.056097288,0.5895535,170.0,133.0,113.0
0.09486401,-0.053620346,0.58953726,155.0,112.0,121.0
0.09486401,-0.05105638,0.58953726,152.0,102.0,123.0
0.09486401,-0.048492413,0.58953726,142.0,105.0,121.0
0.09486401,-0.04592845,0.58953726,139.0,104.0,119.0
0.09720403,-0.043163598,0.5895857,139.0,102.0,126.0
0.09564644,-0.040737316,0.5895535,141.0,99.0,114.0
0.09642643,-0.03811828,0.5895696,143.0,101.0,115.0
0.09564644,-0.035617325,0.5895535,142.0,99.0,111.0
0.09486401,-0.033108614,0.58953726,149.0,102.0,122.0
0.09486401,-0.030544648,0.58953726,151.0,108.0,125.0
0.09486401,-0.027980682,0.58953726,146.0,111.0,125.0
0.09564644,-0.025377346,0.5895535,142.0,116.0,110.0
0.09564644,-0.02281735,0.5895535,139.0,116.0,109.0
0.09797919,-0.02016366,0.5896018,127.0,97.0,113.0
0.09875202,-0.017588388,0.5896178,142.0,105.0,113.0
0.09875202,-0.015044157,0.5896178,142.0,107.0,120.0
0.09875202,-0.012499926,0.5896178,130.0,99.0,111.0
0.09720403,-0.00998644,0.5895857,122.0,91.0,113.0
0.09642643,-0.0074458485,0.5895696,108.0,74.0,100.0
0.09875202,-0.0048672305,0.5896178,137.0,82.0,99.0
0.09875202,-0.0023229986,0.5896178,130.0,95.0,98.0
0.09797919,2.2157414E-4,0.5896018,120.0,92.0,97.0
0.09797919,0.0027697287,0.5896018,132.0,92.0,111.0
0.09797919,0.005317883,0.5896018,131.0,95.0,121.0
0.09952241,0.007841857,0.58963376,133.0,94.0,110.0
0.10029048,0.010366245,0.5896497,131.0,94.0,111.0
0.10029048,0.012902668,0.5896497,127.0,96.0,102.0
0.09952241,0.015462821,0.58963376,114.0,92.0,109.0
0.10029048,0.017975513,0.5896497,123.0,89.0,102.0
0.09952241,0.020543464,0.58963376,121.0,85.0,88.0
0.10105619,0.023013042,0.58966553,119.0,82.0,100.0
0.10029048,0.025584782,0.5896497,115.0,77.0,80.0
0.09875202,0.02820778,0.5896178,133.0,92.0,123.0
0.09952241,0.03070475,0.58963376,127.0,102.0,108.0
0.10029048,0.03319405,0.5896497,122.0,72.0,106.0
0.101819575,0.03562114,0.5896813,106.0,74.0,113.0
0.10105619,0.03820826,0.58966553,118.0,93.0,103.0
0.09952241,0.040866036,0.58963376,127.0,85.0,111.0
0.09875202,0.043473173,0.5896178,125.0,91.0,111.0
0.09875202,0.046017405,0.5896178,120.0,80.0,97.0
0.09875202,0.048561636,0.5896178,126.0,89.0,106.0
0.09952241,0.05102732,0.58963376,116.0,82.0,105.0
0.10029048,0.053485435,0.5896497,113.0,87.0,107.0
0.10029048,0.056021854,0.5896497,116.0,77.0,102.0
0.10029048,0.058558278,0.5896497,121.0,85.0,111.0
0.10029048,0.0610947,0.5896497,120.0,90.0,131.0
0.10105619,0.06353362,0.58966553,117.0,87.0,104.0
0.10105619,0.06606616,0.58966553,137.0,95.0,96.0
0.10029048,0.06870397,0.5896497,143.0,108.0,138.0
0.09564644,-0.05865728,0.5920998,176.0,133.0,123.0
0.09407914,-0.056271613,0.5920752,178.0,131.0,120.0
0.09407914,-0.053703662,0.5920752,143.0,93.0,121.0
0.09486401,-0.05105638,0.59208757,139.0,99.0,121.0
0.09407914,-0.04856776,0.5920752,136.0,103.0,121.0
0.09407914,-0.04599981,0.5920752,135.0,100.0,121.0
0.09486401,-0.04336448,0.59208757,139.0,100.0,101.0
0.09486401,-0.040800516,0.59208757,137.0,111.0,115.0
0.09329188,-0.03835555,0.59206295,137.0,101.0,114.0
0.09329188,-0.035783604,0.59206295,142.0,98.0,120.0
0.09407914,-0.033160057,0.5920752,148.0,95.0,122.0
0.09486401,-0.030544648,0.59208757,140.0,98.0,121.0
0.09486401,-0.027980682,0.59208757,135.0,95.0,119.0
0.09564644,-0.025377346,0.5920998,131.0,91.0,100.0
0.09486401,-0.022852749,0.59208757,134.0,93.0,108.0
0.09720403,-0.020194795,0.5921242,136.0,96.0,118.0
0.09486401,-0.017724816,0.59208757,128.0,95.0,112.0
0.09486401,-0.015160849,0.59208757,131.0,98.0,114.0
0.09486401,-0.012596883,0.59208757,142.0,93.0,122.0
0.09564644,-0.010017376,0.5920998,130.0,94.0,111.0
0.09564644,-0.007457381,0.5920998,125.0,91.0,112.0
0.09720403,-0.0048822616,0.5921242,127.0,90.0,105.0
0.09720403,-0.0023301728,0.5921242,126.0,92.0,102.0
0.09720403,2.2191627E-4,0.5921242,127.0,93.0,94.0
0.09720403,0.0027740053,0.5921242,132.0,91.0,117.0
0.09720403,0.005326094,0.5921242,132.0,90.0,118.0
0.09720403,0.007878183,0.5921242,137.0,84.0,119.0
0.09797919,0.0104141915,0.5921363,139.0,105.0,110.0
0.09797919,0.012962346,0.5921363,137.0,99.0,109.0
0.09720403,0.01553445,0.5921242,136.0,103.0,105.0
0.09720403,0.01808654,0.5921242,129.0,98.0,100.0
0.09720403,0.020638628,0.5921242,138.0,92.0,118.0
0.09720403,0.023190716,0.5921242,129.0,94.0,93.0
0.09642643,0.025782619,0.592112,140.0,109.0,142.0
0.09642643,0.028338654,0.592112,146.0,111.0,124.0
0.09564644,0.030942544,0.5920998,133.0,98.0,88.0
0.09720403,0.03339907,0.5921242,133.0,107.0,137.0
0.10029048,0.038266897,0.59217256,114.0,88.0,111.0
0.09720403,0.04105534,0.5921242,106.0,70.0,99.0
0.09720403,0.04360743,0.5921242,118.0,80.0,106.0
0.09720403,0.046159517,0.5921242,118.0,91.0,93.0
0.09797919,0.048636507,0.5921363,125.0,97.0,109.0
0.09875202,0.051105868,0.5921484,114.0,77.0,116.0
0.09875202,0.0536501,0.5921484,123.0,89.0,111.0
0.10029048,0.056021854,0.59217256,122.0,91.0,105.0
0.09952241,0.058648285,0.5921605,124.0,92.0,109.0
0.09797919,0.06137728,0.5921363,118.0,86.0,95.0
0.09720403,0.06402414,0.5921242,118.0,89.0,114.0
0.09875202,0.066371255,0.5921484,137.0,100.0,110.0
0.09797919,0.06902175,0.5921363,140.0,105.0,127.0
0.09486401,-0.056184314,0.5946378,180.0,133.0,109.0
0.09407914,-0.053703662,0.59462947,153.0,112.0,115.0
0.09329188,-0.051215284,0.5946211,145.0,110.0,110.0
0.09250212,-0.048719153,0.5946128,136.0,95.0,109.0
0.09170991,-0.046215225,0.5946043,133.0,101.0,123.0
0.09091526,-0.04370347,0.5945959,136.0,99.0,137.0
0.09250212,-0.040991288,0.5946128,138.0,91.0,106.0
0.09170991,-0.038475297,0.5946043,143.0,102.0,118.0
0.09170991,-0.03589532,0.5946043,138.0,102.0,127.0
0.09250212,-0.033263423,0.5946128,136.0,97.0,115.0
0.09407914,-0.030592108,0.59462947,141.0,98.0,99.0
0.09407914,-0.028024158,0.59462947,137.0,96.0,97.0
0.09407914,-0.025456207,0.59462947,140.0,100.0,119.0
0.09329188,-0.022923874,0.5946211,137.0,99.0,113.0
0.09250212,-0.020383649,0.5946128,134.0,95.0,113.0
0.09329188,-0.017779982,0.5946211,131.0,91.0,117.0
0.09407914,-0.015184406,0.59462947,133.0,95.0,106.0
0.09329188,-0.012636089,0.5946211,138.0,94.0,108.0
0.09329188,-0.010064142,0.5946211,133.0,89.0,115.0
0.09486401,-0.0074689505,0.5946378,139.0,89.0,104.0
0.09642643,-0.0048898123,0.5946544,131.0,92.0,106.0
0.09564644,-0.0023373913,0.59464616,127.0,95.0,110.0
0.09407914,2.2329549E-4,0.59462947,119.0,91.0,110.0
0.09642643,0.0027782954,0.5946544,130.0,91.0,124.0
0.09720403,0.005326094,0.59466267,131.0,89.0,107.0
0.09564644,0.007902589,0.59464616,135.0,93.0,118.0
0.09564644,0.010462584,0.59464616,132.0,100.0,111.0
0.09486401,0.0130427815,0.5946378,125.0,91.0,110.0
0.09564644,0.015582574,0.59464616,123.0,87.0,113.0
0.09642643,0.01811451,0.5946544,109.0,77.0,114.0
0.09720403,0.020638628,0.59466267,118.0,74.0,105.0
0.09720403,0.023190716,0.59466267,124.0,98.0,114.0
0.09564644,0.025822554,0.59464616,155.0,119.0,127.0
0.09486401,0.02842658,0.5946378,154.0,113.0,127.0
0.09407914,0.0310387,0.59462947,131.0,101.0,125.0
0.09407914,0.03360665,0.59462947,140.0,107.0,128.0
0.09407914,0.0361746,0.59462947,132.0,103.0,134.0
0.09564644,0.03862253,0.59464616,119.0,97.0,108.0
0.09797919,0.040992044,0.5946709,111.0,76.0,88.0
0.09797919,0.0435402,0.5946709,113.0,76.0,106.0
0.09642643,0.046230905,0.5946544,114.0,85.0,106.0
0.09642643,0.048786942,0.5946544,130.0,91.0,103.0
0.09564644,0.051422503,0.59464616,132.0,96.0,113.0
0.09486401,0.054066245,0.5946378,133.0,107.0,112.0
0.09486401,0.05663021,0.5946378,131.0,94.0,123.0
0.09486401,0.059194177,0.5946378,131.0,87.0,119.0
0.09642643,0.06156712,0.5946544,129.0,103.0,124.0
0.09720403,0.06402414,0.59466267,132.0,92.0,131.0
0.09797919,0.06647359,0.5946709,138.0,85.0,123.0
0.09720403,0.06912832,0.59466267,134.0,88.0,120.0
0.09250212,-0.056447018,0.59717494,174.0,132.0,113.0
0.09091526,-0.054039508,0.5971661,137.0,95.0,121.0
0.09170991,-0.05137518,0.59717053,129.0,104.0,118.0
0.09091526,-0.048871487,0.5971661,140.0,104.0,117.0
0.09091526,-0.046287477,0.5971661,147.0,102.0,116.0
0.09011805,-0.043771908,0.59716165,145.0,104.0,120.0
0.09091526,-0.04111946,0.5971661,141.0,103.0,117.0
0.09091526,-0.03853545,0.5971661,135.0,96.0,119.0
0.09170991,-0.03589532,0.59717053,131.0,93.0,116.0
0.09170991,-0.033315346,0.59717053,123.0,95.0,115.0
0.09170991,-0.030735372,0.59717053,130.0,90.0,100.0
0.09250212,-0.028111512,0.59717494,130.0,95.0,93.0
0.09170991,-0.025575418,0.59717053,125.0,97.0,118.0
0.09170991,-0.022995442,0.59717053,130.0,94.0,109.0
0.09091526,-0.020447385,0.5971661,131.0,96.0,104.0
0.09170991,-0.01783549,0.59717053,131.0,90.0,114.0
0.09170991,-0.0152555145,0.59717053,133.0,93.0,110.0
0.09170991,-0.012675539,0.59717053,147.0,98.0,112.0
0.09170991,-0.010095563,0.59717053,135.0,115.0,106.0
0.09486401,-0.0074689505,0.5971881,133.0,97.0,113.0
0.09564644,-0.0048973863,0.59719247,131.0,96.0,115.0
0.09486401,-0.0023410174,0.5971881,132.0,97.0,104.0
0.09407914,2.2329549E-4,0.5971837,135.0,95.0,105.0
0.09486401,0.0027869155,0.5971881,127.0,95.0,110.0
0.09486401,0.0053508817,0.5971881,123.0,92.0,103.0
0.09407914,0.007927147,0.5971837,130.0,84.0,109.0
0.09329188,0.010511428,0.59717935,132.0,97.0,110.0
0.09329188,0.013083374,0.59717935,128.0,94.0,104.0
0.09329188,0.01565532,0.59717935,123.0,85.0,110.0
0.09407914,0.018198948,0.5971837,121.0,94.0,113.0
0.09486401,0.02073468,0.5971881,119.0,89.0,100.0
0.09486401,0.023298647,0.5971881,123.0,87.0,111.0
0.09486401,0.025862614,0.5971881,120.0,82.0,117.0
0.09407914,0.028470749,0.5971837,127.0,100.0,108.0
0.09407914,0.0310387,0.5971837,136.0,99.0,120.0
0.09329188,0.033658944,0.59717935,143.0,105.0,127.0
0.09407914,0.0361746,0.5971837,136.0,104.0,129.0
0.09486401,0.038682446,0.5971881,120.0,99.0,106.0
0.09486401,0.04124641,0.5971881,106.0,86.0,87.0
0.09875202,0.043473173,0.59720975,130.0,114.0,120.0
0.09642643,0.046230905,0.5971968,122.0,94.0,115.0
0.09642643,0.048786942,0.5971968,129.0,86.0,110.0
0.09564644,0.051422503,0.59719247,132.0,87.0,115.0
0.09486401,0.054066245,0.5971881,137.0,101.0,110.0
0.09407914,0.0567182,0.5971837,139.0,106.0,127.0
0.09486401,0.059194177,0.5971881,143.0,110.0,121.0
0.09720403,0.06147205,0.5972011,138.0,110.0,138.0
0.09875202,0.06382702,0.59720975,142.0,119.0,122.0
0.09797919,0.06647359,0.59720546,133.0,95.0,119.0
0.09564644,0.06934247,0.59719247,132.0,89.0,114.0
0.09091526,-0.056623515,0.59973633,174.0,135.0,108.0
0.09011805,-0.05412413,0.5997359,151.0,113.0,121.0
0.09011805,-0.051536076,0.5997359,144.0,101.0,123.0
0.089318395,-0.049024787,0.5997355,142.0,111.0,110.0
0.09091526,-0.046287477,0.59973633,138.0,107.0,122.0
0.09011805,-0.043771908,0.5997359,133.0,102.0,115.0
0.09011805,-0.04118385,0.5997359,135.0,96.0,110.0
0.09011805,-0.038595796,0.5997359,138.0,95.0,104.0
0.09170991,-0.03589532,0.59973675,138.0,104.0,124.0
0.09170991,-0.033315346,0.59973675,142.0,104.0,127.0
0.09091526,-0.030783422,0.59973633,134.0,95.0,115.0
0.09091526,-0.028199412,0.59973633,137.0,93.0,82.0
0.09091526,-0.025615403,0.59973633,128.0,92.0,89.0
0.09091526,-0.023031393,0.59973633,127.0,94.0,76.0
0.09091526,-0.020447385,0.59973633,129.0,87.0,88.0
0.09091526,-0.017863374,0.59973633,127.0,88.0,102.0
0.09091526,-0.015279365,0.59973633,127.0,90.0,101.0
0.09170991,-0.012675539,0.59973675,129.0,93.0,105.0
0.09091526,-0.010111346,0.59973633,135.0,92.0,118.0
0.09170991,-0.007515587,0.59973675,128.0,93.0,113.0
0.09250212,-0.0049279183,0.59973717,121.0,86.0,109.0
0.09329188,-0.0023483033,0.5997375,128.0,88.0,107.0
0.09329188,2.2364296E-4,0.5997375,132.0,96.0,105.0
0.09329188,0.0027955892,0.5997375,127.0,90.0,112.0
0.09329188,0.0053675356,0.5997375,122.0,87.0,96.0
0.09250212,0.007951857,0.59973717,128.0,86.0,90.0
0.09170991,0.010544245,0.59973675,128.0,92.0,107.0
0.09170991,0.013124221,0.59973675,127.0,90.0,107.0
0.09170991,0.015704198,0.59973675,121.0,87.0,106.0
0.09170991,0.018284174,0.59973675,125.0,87.0,106.0
0.09250212,0.020831631,0.59973717,123.0,97.0,110.0
0.09170991,0.023444125,0.59973675,113.0,88.0,95.0
0.09407914,0.025902798,0.59973794,129.0,95.0,110.0
0.09329188,0.028515052,0.5997375,123.0,84.0,97.0
0.09329188,0.031086998,0.5997375,128.0,97.0,92.0
0.09250212,0.033711407,0.59973717,132.0,103.0,109.0
0.09329188,0.036230892,0.5997375,133.0,95.0,113.0
0.09407914,0.03874255,0.59973794,124.0,96.0,111.0
0.09407914,0.0413105,0.59973794,115.0,87.0,83.0
0.09486401,0.04381038,0.59973836,139.0,96.0,118.0
0.09642643,0.046230905,0.5997392,128.0,90.0,97.0
0.09642643,0.048786942,0.5997392,136.0,102.0,122.0
0.09486401,0.051502276,0.59973836,148.0,110.0,123.0
0.09407914,0.05415025,0.59973794,143.0,113.0,134.0
0.09486401,0.05663021,0.59973836,139.0,115.0,137.0
0.09407914,0.05928615,0.59973794,154.0,117.0,130.0
0.10029048,0.0610947,0.59974116,138.0,99.0,125.0
0.09875202,0.06382702,0.5997404,147.0,111.0,120.0
0.09720403,0.06657623,0.59973955,135.0,99.0,123.0
0.09486401,0.06945004,0.59973836,138.0,105.0,115.0
0.08690423,-0.057069648,0.6023247,173.0,131.0,102.0
0.08690423,-0.05446528,0.6023247,152.0,116.0,129.0
0.088516176,-0.051697984,0.6023174,143.0,124.0,120.0
0.088516176,-0.049101796,0.6023174,141.0,99.0,123.0
0.09091526,-0.046287477,0.60230654,146.0,102.0,126.0
0.08771145,-0.04397851,0.602321,140.0,99.0,121.0
0.088516176,-0.04131324,0.6023174,128.0,90.0,118.0
0.08771145,-0.038777966,0.602321,128.0,78.0,111.0
0.08528209,-0.036349256,0.60233206,134.0,80.0,100.0
0.08609444,-0.033683408,0.60232836,144.0,90.0,107.0
0.088516176,-0.03092849,0.6023174,138.0,96.0,118.0
0.088516176,-0.028332304,0.6023174,122.0,89.0,106.0
0.089318395,-0.025695752,0.60231376,130.0,85.0,104.0
0.09091526,-0.023031393,0.60230654,128.0,93.0,100.0
0.09091526,-0.020447385,0.60230654,129.0,87.0,98.0
0.09091526,-0.017863374,0.60230654,130.0,88.0,100.0
0.09091526,-0.015279365,0.60230654,132.0,84.0,88.0
0.09091526,-0.012695355,0.60230654,137.0,97.0,109.0
0.09011805,-0.01012718,0.6023101,137.0,85.0,121.0
0.089318395,-0.007550948,0.60231376,138.0,104.0,116.0
0.089318395,-0.004958833,0.60231376,137.0,99.0,119.0
0.09407914,-0.0023446549,0.6022922,140.0,94.0,121.0
0.09407914,2.2329549E-4,0.6022922,149.0,96.0,112.0
0.09329188,0.0027955892,0.60229576,137.0,90.0,118.0
0.09170991,0.0053842934,0.6023029,150.0,98.0,130.0
0.09170991,0.007964269,0.6023029,140.0,103.0,130.0
0.09091526,0.01056073,0.60230654,127.0,91.0,113.0
0.09091526,0.013144739,0.60230654,125.0,88.0,107.0
0.09091526,0.01572875,0.60230654,120.0,89.0,105.0
0.09091526,0.018312758,0.60230654,126.0,85.0,112.0
0.09170991,0.02086415,0.6023029,127.0,91.0,110.0
0.09170991,0.023444125,0.6023029,119.0,87.0,109.0
0.09170991,0.026024101,0.6023029,118.0,88.0,108.0
0.09170991,0.028604077,0.6023029,105.0,80.0,102.0
0.09170991,0.031184053,0.6023029,121.0,81.0,109.0
0.09170991,0.03376403,0.6023029,125.0,80.0,122.0
0.09170991,0.036344007,0.6023029,129.0,99.0,117.0
0.09091526,0.038984835,0.60230654,132.0,103.0,128.0
0.09250212,0.04143927,0.60229933,127.0,82.0,115.0
0.09250212,0.044015225,0.60229933,132.0,96.0,116.0
0.09720403,0.046159517,0.60227805,139.0,91.0,118.0
0.09720403,0.048711605,0.60227805,136.0,101.0,115.0
0.09250212,0.05174309,0.60229933,144.0,108.0,123.0
0.09170991,0.054403838,0.6023029,143.0,107.0,133.0
0.09329188,0.05680646,0.60229576,140.0,110.0,128.0
0.09250212,0.059470955,0.60229933,144.0,110.0,125.0
0.09011805,0.062338386,0.6023101,142.0,103.0,122.0
0.089318395,0.065028265,0.60231376,155.0,110.0,124.0
0.09011805,0.0675145,0.6023101,146.0,103.0,140.0
0.09170991,0.06988369,0.6023029,149.0,124.0,125.0
0.08609444,-0.057159718,0.6049229,170.0,130.0,116.0
0.08609444,-0.05455124,0.6049229,156.0,120.0,138.0
0.08528209,-0.052024867,0.6049307,148.0,110.0,119.0
0.08446717,-0.049490497,0.6049385,147.0,109.0,120.0
0.08528209,-0.046799663,0.6049307,151.0,105.0,127.0
0.08446717,-0.04425702,0.6049385,144.0,110.0,129.0
0.08528209,-0.04157446,0.6049307,135.0,94.0,120.0
0.08528209,-0.038961858,0.6049307,135.0,100.0,109.0
0.08528209,-0.036349256,0.6049307,133.0,95.0,115.0
0.08528209,-0.033736654,0.6049307,140.0,96.0,119.0
0.08528209,-0.03112405,0.6049307,142.0,106.0,108.0
0.08609444,-0.028466448,0.6049229,132.0,94.0,110.0
0.088516176,-0.02313993,0.6048997,128.0,86.0,114.0
0.089318395,-0.020511523,0.604892,121.0,87.0,100.0
0.088516176,-0.017947556,0.6048997,120.0,80.0,105.0
0.08771145,-0.015375522,0.60490745,123.0,81.0,93.0
0.08528209,-0.012835833,0.6049307,140.0,98.0,113.0
0.088516176,-0.010158996,0.6048997,146.0,101.0,127.0
0.088516176,-0.0075628096,0.6048997,143.0,111.0,128.0
0.08771145,-0.004974437,0.60490745,146.0,105.0,131.0
0.08771145,-0.0023741655,0.60490745,142.0,96.0,125.0
0.08771145,2.2610596E-4,0.60490745,133.0,94.0,107.0
0.08771145,0.0028263773,0.60490745,129.0,84.0,115.0
0.09011805,0.0054011554,0.6048844,140.0,99.0,123.0
0.09011805,0.007989212,0.6048844,140.0,104.0,127.0
0.09011805,0.010577268,0.6048844,126.0,94.0,111.0
0.089318395,0.0131859705,0.604892,123.0,85.0,108.0
0.089318395,0.015778085,0.604892,125.0,89.0,100.0
0.09011805,0.018341435,0.6048844,128.0,90.0,117.0
0.089318395,0.020962315,0.604892,128.0,94.0,117.0
0.09011805,0.023517547,0.6048844,128.0,92.0,119.0
0.089318395,0.026146546,0.604892,127.0,89.0,109.0
0.089318395,0.02873866,0.604892,126.0,87.0,119.0
0.09091526,0.031232806,0.60487676,127.0,99.0,121.0
0.09091526,0.033816814,0.60487676,124.0,98.0,121.0
0.08771145,0.036629904,0.60490745,129.0,101.0,123.0
0.089318395,0.039107118,0.604892,129.0,106.0,117.0
0.09170991,0.04150396,0.6048691,117.0,73.0,123.0
0.09091526,0.044152852,0.60487676,127.0,88.0,119.0
0.089318395,0.046883464,0.604892,130.0,90.0,123.0
0.09170991,0.049243886,0.6048691,119.0,99.0,120.0
0.09250212,0.05174309,0.60486156,143.0,107.0,121.0
0.09170991,0.054403838,0.6048691,136.0,101.0,119.0
0.09170991,0.056983814,0.6048691,141.0,101.0,129.0
0.09011805,0.05975033,0.6048844,142.0,106.0,120.0
0.09011805,0.062338386,0.6048844,145.0,106.0,120.0
0.09011805,0.064926445,0.6048844,145.0,109.0,111.0
0.088516176,0.067726605,0.6048997,148.0,115.0,133.0
0.09091526,0.069992945,0.60487676,147.0,97.0,128.0
0.08528209,-0.05725007,0.60752934,164.0,132.0,107.0
0.08528209,-0.05463747,0.60752934,150.0,107.0,110.0
0.08446717,-0.052107234,0.60754126,143.0,106.0,89.0
0.08446717,-0.049490497,0.60754126,145.0,101.0,120.0
0.083649635,-0.04694809,0.60755324,145.0,105.0,121.0
0.083649635,-0.044327203,0.60755324,142.0,106.0,93.0
0.08446717,-0.04164028,0.60754126,139.0,98.0,114.0
0.08446717,-0.03902354,0.60754126,136.0,97.0,102.0
0.08528209,-0.036349256,0.60752934,145.0,101.0,125.0
0.08446717,-0.033790063,0.60754126,139.0,103.0,129.0
0.083649635,-0.03122276,0.60755324,137.0,103.0,126.0
0.08609444,-0.028466448,0.6075175,138.0,103.0,120.0
0.08690423,-0.018004118,0.6075056,137.0,98.0,123.0
0.08528209,-0.015448435,0.60752934,136.0,97.0,111.0
0.08609444,-0.012815575,0.6075175,135.0,95.0,115.0
0.08528209,-0.010223231,0.60752934,131.0,99.0,123.0
0.08446717,-0.0076226783,0.60754126,137.0,100.0,123.0
0.08690423,-0.004982275,0.6075056,139.0,114.0,125.0
0.088516176,-0.002370436,0.607482,142.0,106.0,123.0
0.088516176,2.2575077E-4,0.607482,137.0,106.0,120.0
0.08528209,0.0028397804,0.60752934,137.0,107.0,132.0
0.08528209,0.005452383,0.60752934,136.0,101.0,119.0
0.089318395,0.008001741,0.6074703,137.0,101.0,111.0
0.089318395,0.010593856,0.6074703,128.0,92.0,111.0
0.088516176,0.013206684,0.607482,127.0,90.0,105.0
0.08771145,0.015827734,0.6074938,127.0,93.0,108.0
0.089318395,0.0183702,0.6074703,135.0,95.0,118.0
0.088516176,0.020995244,0.607482,126.0,86.0,114.0
0.08771145,0.023628548,0.6074938,112.0,84.0,104.0
0.088516176,0.026187617,0.607482,127.0,93.0,128.0
0.088516176,0.028783806,0.607482,140.0,106.0,122.0
0.08771145,0.03142936,0.6074938,130.0,105.0,124.0
0.08771145,0.034029633,0.6074938,132.0,99.0,124.0
0.08771145,0.036629904,0.6074938,139.0,102.0,132.0
0.088516176,0.03916855,0.607482,139.0,108.0,151.0
0.09011805,0.041633938,0.6074586,137.0,112.0,125.0
0.088516176,0.044360925,0.607482,142.0,121.0,125.0
0.089318395,0.046883464,0.6074703,146.0,107.0,137.0
0.09011805,0.049398106,0.6074586,148.0,123.0,136.0
0.09091526,0.05190488,0.60744697,150.0,118.0,151.0
0.08690423,0.054918204,0.6075056,147.0,125.0,145.0
0.088516176,0.05734186,0.607482,149.0,117.0,163.0
0.088516176,0.059938047,0.607482,144.0,119.0,144.0
0.089318395,0.062436152,0.6074703,138.0,105.0,126.0
0.089318395,0.065028265,0.6074703,142.0,104.0,127.0
0.089318395,0.06762038,0.6074703,133.0,92.0,124.0
0.083649635,-0.057431642,0.6101601,161.0,122.0,96.0
0.082829535,-0.05489781,0.61017627,152.0,111.0,121.0
0.08446717,-0.052107234,0.610144,148.0,113.0,140.0
0.08446717,-0.049490497,0.610144,146.0,103.0,120.0
0.08200681,-0.044468235,0.6101924,143.0,108.0,133.0
0.082829535,-0.041772556,0.61017627,139.0,98.0,126.0
0.083649635,-0.039085425,0.6101601,148.0,104.0,136.0
0.083649635,-0.03646454,0.6101601,139.0,106.0,123.0
0.083649635,-0.033843648,0.6101601,140.0,102.0,122.0
0.08528209,-0.03112405,0.610128,145.0,114.0,121.0
0.082829535,-0.018147096,0.61017627,139.0,105.0,129.0
0.08446717,-0.015472894,0.610144,140.0,104.0,125.0
0.08446717,-0.012856156,0.610144,151.0,103.0,122.0
0.08446717,-0.010239417,0.610144,134.0,106.0,121.0
0.08446717,-0.0076226783,0.610144,140.0,104.0,126.0
0.08528209,-0.0049980264,0.610128,140.0,105.0,127.0
0.08690423,-0.0023779063,0.6100961,137.0,102.0,109.0
0.08528209,2.2717819E-4,0.610128,136.0,100.0,117.0
0.08446717,0.0028442766,0.610144,135.0,98.0,119.0
0.083649635,0.005469675,0.6101601,134.0,96.0,122.0
0.07952285,0.008155225,0.6102413,138.0,100.0,125.0
0.07952285,0.01079706,0.6102413,131.0,91.0,111.0
0.08446717,0.0133112315,0.610144,135.0,103.0,110.0
0.08528209,0.015902791,0.610128,128.0,92.0,105.0
0.08528209,0.018515395,0.610128,130.0,101.0,105.0
0.08528209,0.021127997,0.610128,123.0,87.0,123.0
0.08771145,0.023628548,0.6100802,117.0,80.0,117.0
0.088516176,0.026187617,0.6100643,130.0,90.0,118.0
0.08771145,0.02882909,0.6100802,145.0,105.0,128.0
0.08771145,0.03142936,0.6100802,135.0,93.0,122.0
0.08690423,0.034083255,0.6100961,134.0,108.0,113.0
0.08771145,0.036629904,0.6100802,134.0,100.0,121.0
0.08609444,0.039354004,0.610112,131.0,91.0,124.0
0.08609444,0.041962482,0.610112,142.0,106.0,126.0
0.08609444,0.044570964,0.610112,149.0,116.0,130.0
0.08771145,0.04703099,0.6100802,151.0,105.0,132.0
0.089318395,0.04947558,0.6100486,146.0,117.0,134.0
0.088516176,0.052149486,0.6100643,148.0,112.0,136.0
0.08609444,0.05500488,0.610112,149.0,101.0,139.0
0.08690423,0.057522573,0.6100961,146.0,103.0,127.0
0.08690423,0.06012694,0.6100961,144.0,101.0,126.0
0.08771145,0.06263262,0.6100802,147.0,107.0,126.0
0.08690423,0.065335676,0.6100961,153.0,110.0,135.0
0.088516176,0.067726605,0.6100643,151.0,106.0,133.0
0.08200681,-0.052355915,0.61280763,134.0,101.0,124.0
0.08446717,-0.049490497,0.6127468,137.0,94.0,116.0
0.082829535,-0.044397607,0.6127873,136.0,110.0,118.0
0.08200681,-0.041839007,0.61280763,133.0,94.0,115.0
0.082829535,-0.039147504,0.6127873,138.0,103.0,112.0
0.08118147,-0.036638837,0.612828,136.0,99.0,116.0
0.082829535,-0.033897404,0.6127873,132.0,93.0,116.0
0.07952285,-0.0314723,0.612869,129.0,103.0,119.0
0.078689575,-0.028876621,0.61288965,136.0,103.0,124.0
0.078689575,-0.026230557,0.61288965,138.0,114.0,118.0
0.08118147,-0.023471758,0.612828,135.0,101.0,121.0
0.08118147,-0.02083834,0.612828,141.0,102.0,127.0
0.08118147,-0.018204926,0.612828,137.0,109.0,144.0
0.08118147,-0.0155715095,0.612828,135.0,111.0,126.0
0.08200681,-0.012917511,0.61280763,126.0,105.0,124.0
0.08446717,-0.010239417,0.6127468,135.0,113.0,113.0
0.083649635,-0.0076347664,0.612767,141.0,106.0,124.0
0.083649635,-0.005013878,0.612767,144.0,108.0,122.0
0.08528209,-0.0023854242,0.6127266,137.0,101.0,119.0
0.082829535,2.2826066E-4,0.6127873,134.0,103.0,113.0
0.08200681,0.0028578506,0.61280763,134.0,99.0,118.0
0.082829535,0.0054783626,0.6127873,135.0,101.0,120.0
0.08118147,0.008129236,0.612828,133.0,101.0,121.0
0.08118147,0.010762653,0.612828,125.0,96.0,114.0
0.08200681,0.013374759,0.61280763,121.0,111.0,98.0
0.082829535,0.015978567,0.6127873,120.0,87.0,100.0
0.083649635,0.018574117,0.612767,122.0,90.0,100.0
0.08528209,0.021127997,0.6127266,122.0,93.0,119.0
0.08528209,0.023740599,0.6127266,105.0,91.0,117.0
0.09091526,0.026064787,0.61258733,123.0,92.0,101.0
0.08528209,0.03419101,0.6127266,130.0,107.0,101.0
0.08771145,0.036629904,0.61266655,131.0,94.0,111.0
0.08446717,0.03947862,0.6127468,137.0,108.0,113.0
0.08528209,0.042028815,0.6127266,143.0,117.0,121.0
0.08528209,0.044641417,0.6127266,147.0,112.0,115.0
0.08609444,0.047179442,0.61270654,147.0,106.0,121.0
0.08609444,0.04978792,0.61270654,132.0,108.0,124.0
0.08609444,0.052396398,0.61270654,144.0,103.0,125.0
0.08446717,0.05517905,0.6127468,141.0,108.0,137.0
0.08528209,0.05770443,0.6127266,138.0,108.0,125.0
0.08609444,0.060221836,0.61270654,144.0,109.0,125.0
0.08771145,0.06263262,0.61266655,146.0,118.0,139.0
0.08771145,0.06523289,0.61266655,160.0,104.0,130.0
0.08771145,0.06783316,0.61266655,144.0,109.0,119.0
0.0803535,-0.052523024,0.615472,139.0,104.0,114.0
0.078689575,-0.05004514,0.61552155,142.0,102.0,112.0
0.078689575,-0.047399074,0.61552155,138.0,100.0,121.0
0.07785362,-0.044824775,0.61554646,134.0,97.0,124.0
0.08118147,-0.04190567,0.6154474,127.0,90.0,108.0
0.083649635,-0.039085425,0.6153739,127.0,90.0,93.0
0.08118147,-0.036638837,0.6154474,121.0,92.0,92.0
0.0803535,-0.034059692,0.615472,127.0,88.0,98.0
0.07952285,-0.0314723,0.61549675,137.0,105.0,143.0
0.07952285,-0.028830465,0.61549675,132.0,96.0,105.0
0.07952285,-0.02618863,0.61549675,133.0,91.0,109.0
0.0803535,-0.023509216,0.615472,136.0,97.0,102.0
0.0803535,-0.020871596,0.615472,138.0,109.0,111.0
0.0803535,-0.018233977,0.615472,143.0,115.0,138.0
0.07952285,-0.01562129,0.61549675,137.0,105.0,124.0
0.0803535,-0.012958741,0.615472,135.0,101.0,121.0
0.082829535,-0.010271943,0.6153983,142.0,122.0,153.0
0.08446717,-0.0076226783,0.61534953,134.0,100.0,124.0
0.08446717,-0.0050059394,0.61534953,132.0,94.0,108.0
0.082829535,-0.0023967903,0.6153983,135.0,98.0,117.0
0.08118147,2.2898805E-4,0.6154474,144.0,108.0,124.0
0.08118147,0.0028624043,0.6154474,131.0,102.0,118.0
0.0803535,0.005504591,0.615472,129.0,93.0,112.0
0.08528209,0.008064985,0.6153253,132.0,93.0,106.0
0.08200681,0.010745532,0.6154228,133.0,108.0,142.0
0.08200681,0.013374759,0.6154228,121.0,94.0,108.0
0.082829535,0.015978567,0.6153983,121.0,87.0,102.0
0.082829535,0.018603617,0.6153983,128.0,92.0,97.0
0.082829535,0.02122867,0.6153983,134.0,91.0,96.0
0.08118147,0.023929734,0.6154474,123.0,98.0,99.0
0.08200681,0.026520893,0.6154228,120.0,89.0,107.0
0.08446717,0.03424514,0.61534953,121.0,87.0,114.0
0.08771145,0.036629904,0.615253,128.0,97.0,92.0
0.08446717,0.03947862,0.61534953,135.0,93.0,107.0
0.083649635,0.042162113,0.6153739,138.0,100.0,113.0
0.083649635,0.044783,0.6153739,141.0,99.0,113.0
0.08446717,0.047328833,0.61534953,143.0,95.0,111.0
0.08446717,0.04994557,0.61534953,141.0,99.0,114.0
0.08446717,0.05256231,0.61534953,138.0,100.0,103.0
0.08446717,0.05517905,0.61534953,136.0,96.0,90.0
0.08446717,0.05779579,0.61534953,140.0,109.0,115.0
0.083649635,0.06050833,0.6153739,137.0,105.0,116.0
0.08609444,0.062830314,0.6153011,136.0,106.0,99.0
0.08528209,0.065542236,0.6153253,129.0,109.0,103.0
0.08446717,0.06826274,0.61534953,124.0,87.0,107.0
0.07785362,-0.05012539,0.6181826,145.0,104.0,129.0
0.07701498,-0.047551334,0.6182118,145.0,107.0,125.0
0.07785362,-0.044824775,0.6181826,142.0,108.0,135.0
0.07952285,-0.04203964,0.6181245,128.0,83.0,103.0
0.08118147,-0.039272256,0.6180667,130.0,96.0,109.0
0.08200681,-0.03658055,0.618038,137.0,105.0,112.0
0.07952285,-0.034114134,0.6181245,138.0,110.0,110.0
0.078689575,-0.031522688,0.6181535,142.0,101.0,111.0
0.07785362,-0.028922928,0.6181826,141.0,96.0,101.0
0.078689575,-0.026230557,0.6181535,137.0,98.0,73.0
0.078689575,-0.023584493,0.6181535,128.0,96.0,80.0
0.07785362,-0.020972004,0.6181826,131.0,80.0,101.0
0.078689575,-0.018292364,0.6181535,118.0,86.0,83.0
0.078689575,-0.0156463,0.6181535,125.0,72.0,77.0
0.078689575,-0.013000235,0.6181535,131.0,88.0,76.0
0.07785362,-0.010370774,0.6181826,138.0,107.0,135.0
0.07785362,-0.0077204662,0.6181826,128.0,99.0,108.0
0.07785362,-0.0050701583,0.6181826,129.0,96.0,95.0
0.07785362,-0.0024198508,0.6181826,130.0,97.0,109.0
0.078689575,2.3008788E-4,0.6181535,132.0,91.0,95.0
0.078689575,0.0028761525,0.6181535,130.0,93.0,86.0
0.08118147,0.0054958207,0.6180667,123.0,85.0,74.0
0.08690423,0.008039569,0.61786747,119.0,75.0,63.0
0.08118147,0.010762653,0.6180667,112.0,81.0,74.0
0.08118147,0.013396069,0.6180667,118.0,87.0,67.0
0.0803535,0.016055066,0.6180956,113.0,73.0,65.0
0.07952285,0.018722566,0.6181245,108.0,82.0,54.0
0.07952285,0.0213644,0.6181245,106.0,71.0,68.0
0.07952285,0.024006234,0.6181245,114.0,67.0,72.0
0.07785362,0.026733534,0.6181826,117.0,96.0,78.0
0.08118147,0.029196566,0.6180667,116.0,62.0,49.0
0.082829535,0.034353923,0.6180093,124.0,97.0,51.0
0.08528209,0.03680361,0.6179239,116.0,65.0,76.0
0.08528209,0.039416213,0.6179239,114.0,86.0,157.0
0.08528209,0.042028815,0.6179239,102.0,56.0,95.0
0.082829535,0.044854127,0.6180093,109.0,77.0,136.0
0.082829535,0.04747918,0.6180093,99.0,56.0,110.0
0.08200681,0.050183937,0.618038,106.0,66.0,128.0
0.082829535,0.05272928,0.6180093,106.0,73.0,123.0
0.082829535,0.05535433,0.6180093,91.0,47.0,129.0
0.08118147,0.058164146,0.6180667,107.0,71.0,127.0
0.08118147,0.06079756,0.6180667,103.0,79.0,133.0
0.082829535,0.06322949,0.6180093,104.0,59.0,135.0
0.083649635,0.06575011,0.6179808,100.0,80.0,107.0
0.083649635,0.068371,0.6179808,119.0,80.0,81.0
0.07785362,-0.052775696,0.6208188,144.0,107.0,95.0
0.07617366,-0.05028666,0.6208857,147.0,106.0,84.0
0.07617366,-0.04762783,0.6208857,115.0,68.0,56.0
0.07617366,-0.044968992,0.6208857,87.0,75.0,70.0
0.07617366,-0.04231016,0.6208857,104.0,64.0,77.0
0.0753296,-0.039715216,0.6209194,193.0,151.0,121.0
0.0803535,-0.03669731,0.6207191,204.0,138.0,114.0
0.078689575,-0.03416875,0.6207854,212.0,135.0,104.0
0.07785362,-0.031573236,0.6208188,198.0,143.0,91.0
0.07701498,-0.028969381,0.62085223,198.0,133.0,105.0
0.0753296,-0.02639962,0.6209194,102.0,46.0,26.0
0.07701498,-0.023660254,0.62085223,104.0,77.0,48.0
0.07701498,-0.021005688,0.62085223,99.0,78.0,59.0
0.07785362,-0.018321697,0.6208188,90.0,65.0,74.0
0.07785362,-0.01567139,0.6208188,63.0,35.0,44.0
0.07785362,-0.013021082,0.6208188,87.0,55.0,34.0
0.07701498,-0.010387431,0.62085223,116.0,67.0,62.0
0.07701498,-0.0077328663,0.62085223,152.0,90.0,88.0
0.07785362,-0.0050701583,0.6208188,92.0,66.0,80.0
0.07701498,-0.0024237374,0.62085223,115.0,88.0,118.0
0.07617366,2.3119833E-4,0.6208857,133.0,62.0,57.0
0.07785362,0.0028807644,0.6208188,61.0,26.0,30.0
0.07617366,0.005548868,0.6208857,44.0,4.0,21.0
0.08446717,0.008077754,0.6205551,106.0,44.0,25.0
0.07952285,0.01079706,0.6207522,61.0,36.0,39.0
0.0803535,0.013417448,0.6207191,51.0,3.0,13.0
0.07785362,0.016132303,0.6208188,45.0,23.0,27.0
0.078689575,0.01875254,0.6207854,54.0,17.0,12.0
0.078689575,0.021398604,0.6207854,67.0,23.0,27.0
0.07952285,0.024006234,0.6207522,38.0,18.0,28.0
0.07952285,0.02664807,0.6207522,45.0,16.0,25.0
0.08118147,0.029196566,0.62068605,43.0,12.0,11.0
0.08200681,0.031779345,0.62065315,40.0,14.0,15.0
0.08118147,0.0344634,0.62068605,47.0,9.0,7.0
0.082829535,0.036978975,0.62062037,19.0,23.0,38.0
0.08200681,0.03966703,0.62065315,246.0,247.0,228.0
0.082829535,0.042229075,0.62062037,210.0,187.0,171.0
0.08118147,0.044997063,0.62068605,186.0,163.0,191.0
0.0803535,0.047706492,0.6207191,213.0,205.0,199.0
0.08118147,0.050263897,0.62068605,193.0,177.0,198.0
0.08200681,0.05281316,0.62065315,225.0,184.0,196.0
0.08200681,0.05544239,0.62065315,184.0,180.0,177.0
0.08118147,0.058164146,0.62068605,187.0,164.0,182.0
0.08118147,0.06079756,0.62068605,188.0,174.0,187.0
0.0803535,0.0635322,0.6207191,184.0,201.0,218.0
0.083649635,0.06575011,0.62058765,116.0,93.0,133.0
0.08446717,0.06826274,0.6205551,129.0,84.0,98.0
0.0753296,-0.05303081,0.6235683,140.0,102.0,89.0
0.0744828,-0.050448984,0.6236063,137.0,113.0,81.0
0.0744828,-0.047781568,0.6236063,104.0,64.0,68.0
0.0744828,-0.04511415,0.6236063,127.0,100.0,64.0
0.0753296,-0.042378332,0.6235683,124.0,96.0,77.0
0.07785362,-0.039524157,0.6234549,136.0,93.0,95.0
0.0744828,-0.037111897,0.6236063,142.0,102.0,90.0
0.07617366,-0.034333654,0.6235304,140.0,105.0,86.0
0.07363331,-0.03182843,0.6236445,142.0,96.0,74.0
0.0753296,-0.029062739,0.6235683,148.0,94.0,95.0
0.0744828,-0.026442228,0.6236063,124.0,97.0,101.0
0.07617366,-0.023698315,0.6235304,121.0,98.0,97.0
0.07617366,-0.02103948,0.6235304,121.0,105.0,82.0
0.07701498,-0.018351125,0.6234926,113.0,93.0,57.0
0.0753296,-0.015747143,0.6235683,108.0,101.0,22.0
0.0744828,-0.013105142,0.6236063,110.0,96.0,39.0
0.0753296,-0.010420905,0.6235683,119.0,78.0,42.0
0.07701498,-0.0077328663,0.6234926,144.0,60.0,34.0
0.07617366,-0.0050864713,0.6235304,129.0,71.0,21.0
0.0753296,-0.0024315482,0.6235683,134.0,90.0,4.0
0.0744828,2.319446E-4,0.6236063,110.0,72.0,40.0
0.0753296,0.00289469,0.6235683,83.0,68.0,71.0
0.07617366,0.005548868,0.6235304,72.0,64.0,63.0
0.07701498,0.00819452,0.6234926,106.0,71.0,60.0
0.0753296,0.0108840475,0.6235683,77.0,64.0,9.0
0.0744828,0.013569031,0.6236063,67.0,54.0,61.0
0.0753296,0.016210286,0.6235683,74.0,76.0,41.0
0.07785362,0.01878261,0.6234549,69.0,61.0,5.0
0.07785362,0.021432918,0.6234549,21.0,2.0,1.0
0.078689575,0.024044668,0.6234174,34.0,9.0,2.0
0.07701498,0.026776472,0.6234926,41.0,22.0,2.0
0.07785362,0.029383842,0.6234549,30.0,17.0,3.0
0.0744828,0.032240953,0.6236063,22.0,4.0,1.0
0.0803535,0.0345184,0.62334263,30.0,3.0,1.0
0.08118147,0.037096813,0.62330544,9.0,1.0,1.0
0.078689575,0.039921056,0.6234174,183.0,142.0,27.0
0.07952285,0.04249908,0.62337995,221.0,200.0,218.0
0.078689575,0.045213185,0.6234174,191.0,183.0,191.0
0.078689575,0.047859248,0.6234174,231.0,209.0,223.0
0.07785362,0.0505863,0.6234549,199.0,190.0,205.0
0.08118147,0.05289731,0.62330544,213.0,167.0,184.0
0.08118147,0.055530727,0.62330544,202.0,167.0,189.0
0.08118147,0.058164146,0.62330544,209.0,193.0,184.0
0.0803535,0.060894586,0.62334263,193.0,166.0,164.0
0.08200681,0.06333007,0.62326837,217.0,216.0,246.0
0.082829535,0.065854535,0.6232314,123.0,74.0,149.0
0.082829535,0.06847958,0.6232314,133.0,90.0,97.0
0.07278103,-0.055964462,0.62634456,134.0,96.0,79.0
0.0744828,-0.0531164,0.6262595,141.0,104.0,83.0
0.0753296,-0.05036769,0.6262172,135.0,99.0,81.0
0.07617366,-0.04762783,0.62617505,132.0,110.0,96.0
0.07363331,-0.045187075,0.62630194,129.0,95.0,79.0
0.07278103,-0.042584185,0.62634456,130.0,96.0,86.0
0.071926,-0.039972853,0.62638724,128.0,98.0,91.0
0.071926,-0.037292458,0.62638724,136.0,92.0,74.0
0.071926,-0.034612063,0.62638724,134.0,98.0,78.0
0.071926,-0.03193167,0.62638724,137.0,101.0,98.0
0.071926,-0.029251272,0.62638724,136.0,100.0,96.0
0.0744828,-0.026442228,0.6262595,137.0,99.0,83.0
0.07617366,-0.023698315,0.62617505,133.0,112.0,107.0
0.0753296,-0.021073382,0.6262172,129.0,95.0,88.0
0.0753296,-0.018410264,0.6262172,119.0,77.0,64.0
0.07363331,-0.015798055,0.62630194,121.0,75.0,53.0
0.07278103,-0.0131475795,0.62634456,105.0,58.0,56.0
0.0744828,-0.010437724,0.6262595,82.0,60.0,42.0
0.07701498,-0.0077328663,0.62613297,78.0,68.0,32.0
0.071926,-0.0051277173,0.62638724,95.0,67.0,48.0
0.071926,-0.002447322,0.62638724,101.0,69.0,52.0
0.07363331,2.3231954E-4,0.62630194,110.0,72.0,42.0
0.0744828,0.0028993618,0.6262595,73.0,66.0,42.0
0.0753296,0.005557809,0.6262172,80.0,68.0,44.0
0.0744828,0.008234196,0.6262595,93.0,75.0,47.0
0.07363331,0.010919236,0.62630194,107.0,74.0,47.0
0.07363331,0.013590965,0.62630194,105.0,72.0,80.0
0.07363331,0.016262693,0.62630194,105.0,68.0,74.0
