x,y,z,r,g,b
0.087821774,0.0536669,0.5951549,41.0,34.0,62.0
0.08642122,0.05652137,0.59416604,43.0,27.0,66.0
0.08642122,0.059201766,0.59416604,41.0,35.0,64.0
0.08571756,0.061982676,0.5936693,35.0,22.0,59.0
0.08642122,0.06456255,0.59416604,39.0,23.0,58.0
0.08571756,0.067352176,0.5936693,37.0,20.0,51.0
0.08642122,0.06992334,0.59416604,40.0,27.0,71.0
0.08927566,-0.05286046,0.5994,63.0,41.0,66.0
0.08858338,-0.05028666,0.5989164,24.0,25.0,52.0
0.08858338,-0.04762783,0.5989164,40.0,17.0,48.0
0.08788884,-0.045041453,0.5984313,38.0,22.0,55.0
0.08858338,-0.04231016,0.5989164,39.0,25.0,43.0
0.08858338,-0.039651323,0.5989164,43.0,15.0,48.0
0.08927566,-0.036933076,0.5994,44.0,25.0,50.0
0.08927566,-0.034278512,0.5994,50.0,25.0,51.0
0.08927566,-0.031623945,0.5994,35.0,27.0,41.0
0.08927566,-0.028969381,0.5994,34.0,26.0,35.0
0.08927566,-0.026314817,0.5994,42.0,30.0,54.0
0.08927566,-0.023660254,0.5994,40.0,33.0,56.0
0.08858338,-0.02103948,0.5989164,47.0,24.0,30.0
0.08858338,-0.018380646,0.5989164,40.0,25.0,36.0
0.08788884,-0.015747143,0.5984313,32.0,19.0,46.0
0.08788884,-0.013084024,0.5984313,33.0,20.0,31.0
0.08996574,-0.010370774,0.599882,36.0,18.0,31.0
0.08927566,-0.0077328663,0.5994,28.0,20.0,30.0
0.08927566,-0.0050783018,0.5994,31.0,22.0,55.0
0.08858338,-0.0024276364,0.5989164,35.0,18.0,40.0
0.08788884,2.3157086E-4,0.5984313,36.0,26.0,36.0
0.08858338,0.0028900332,0.5989164,35.0,31.0,23.0
0.08858338,0.005548868,0.5989164,34.0,24.0,34.0
0.08858338,0.008207703,0.5989164,34.0,24.0,61.0
0.08858338,0.010866538,0.5989164,38.0,30.0,53.0
0.08858338,0.013525372,0.5989164,36.0,26.0,45.0
0.08788884,0.016210286,0.5984313,40.0,27.0,39.0
0.08719204,0.018903866,0.59794456,40.0,22.0,70.0
0.08719204,0.021571282,0.59794456,36.0,15.0,31.0
0.086493045,0.02427788,0.5974563,39.0,19.0,27.0
0.086493045,0.02694961,0.5974563,39.0,21.0,27.0
0.086493045,0.02962134,0.5974563,46.0,29.0,49.0
0.086493045,0.03229307,0.5974563,44.0,23.0,75.0
0.08719204,0.03490837,0.59794456,45.0,32.0,79.0
0.08719204,0.037575785,0.59794456,42.0,27.0,55.0
0.086493045,0.040308256,0.5974563,24.0,20.0,30.0
0.08579174,0.043049578,0.5969664,45.0,11.0,50.0
0.08579174,0.045725632,0.5969664,40.0,14.0,56.0
0.086493045,0.04832344,0.5974563,35.0,28.0,32.0
0.086493045,0.05099517,0.5974563,39.0,27.0,52.0
0.086493045,0.0536669,0.5974563,36.0,29.0,62.0
0.086493045,0.05633863,0.5974563,38.0,25.0,31.0
0.086493045,0.05901036,0.5974563,39.0,21.0,58.0
0.08579174,0.061781965,0.5969664,44.0,14.0,59.0
0.08508818,0.06456255,0.59647495,37.0,19.0,52.0
0.08508818,0.06724295,0.59647495,36.0,13.0,46.0
0.086493045,0.069697276,0.5974563,38.0,24.0,50.0
0.08864766,-0.052775696,0.602165,62.0,45.0,76.0
0.08864766,-0.05012539,0.602165,40.0,37.0,72.0
0.08795547,-0.047551334,0.60168666,44.0,32.0,84.0
0.08795547,-0.044896767,0.60168666,39.0,31.0,57.0
0.08795547,-0.042242203,0.60168666,42.0,26.0,42.0
0.08864766,-0.039524157,0.602165,38.0,26.0,40.0
0.08864766,-0.03687385,0.602165,33.0,22.0,49.0
0.08864766,-0.03422354,0.602165,44.0,28.0,60.0
0.08864766,-0.031573236,0.602165,31.0,27.0,28.0
0.08864766,-0.028922928,0.602165,35.0,25.0,42.0
0.08864766,-0.02627262,0.602165,39.0,29.0,51.0
0.08864766,-0.023622312,0.602165,37.0,29.0,40.0
0.08864766,-0.020972004,0.602165,35.0,17.0,43.0
0.08795547,-0.018351125,0.60168666,27.0,31.0,78.0
0.08795547,-0.01569656,0.60168666,30.0,25.0,69.0
0.08795547,-0.0130419955,0.60168666,31.0,26.0,57.0
0.08933764,-0.010354171,0.6026418,28.0,21.0,40.0
0.08933764,-0.0077081057,0.6026418,34.0,21.0,32.0
0.08864766,-0.0050701583,0.602165,35.0,29.0,11.0
0.08795547,-0.0024237374,0.60168666,34.0,24.0,52.0
0.08795547,2.3082699E-4,0.60168666,40.0,24.0,46.0
0.08795547,0.0028853915,0.60168666,32.0,26.0,31.0
0.08864766,0.005531072,0.602165,33.0,28.0,30.0
0.08795547,0.00819452,0.60168666,31.0,21.0,19.0
0.08795547,0.010849085,0.60168666,36.0,30.0,53.0
0.08864766,0.013481995,0.602165,30.0,27.0,52.0
0.08795547,0.016158214,0.60168666,37.0,21.0,49.0
0.08864766,0.01878261,0.602165,36.0,16.0,59.0
0.08795547,0.021467343,0.60168666,34.0,13.0,49.0
0.08656439,0.024199642,0.6007253,33.0,27.0,41.0
0.08726106,0.026819546,0.6012067,41.0,27.0,46.0
0.08726106,0.02947838,0.6012067,42.0,28.0,72.0
0.08656439,0.032189,0.6007253,34.0,36.0,81.0
0.08726106,0.03479605,0.6012067,34.0,36.0,75.0
0.08726106,0.037454884,0.6012067,39.0,31.0,67.0
0.08726106,0.04011372,0.6012067,38.0,30.0,71.0
0.08586546,0.04291062,0.60024226,36.0,20.0,60.0
0.08656439,0.045504596,0.6007253,39.0,25.0,50.0
0.08656439,0.048167713,0.6007253,39.0,22.0,55.0
0.08656439,0.050830834,0.6007253,38.0,22.0,50.0
0.08656439,0.05349395,0.6007253,34.0,25.0,58.0
0.08656439,0.05615707,0.6007253,30.0,22.0,44.0
0.08656439,0.05882019,0.6007253,38.0,26.0,56.0
0.085164316,0.06168209,0.59975773,38.0,19.0,58.0
0.085164316,0.064353816,0.59975773,30.0,22.0,94.0
0.085164316,0.06702555,0.59975773,36.0,23.0,57.0
0.08586546,0.069584794,0.60024226,31.0,22.0,53.0
0.08732959,-0.052775696,0.60444796,58.0,51.0,58.0
0.08871154,-0.049965147,0.6053928,45.0,41.0,68.0
0.08871154,-0.04732331,0.6053928,43.0,32.0,59.0
0.08871154,-0.044681475,0.6053928,40.0,31.0,58.0
0.08871154,-0.04203964,0.6053928,37.0,28.0,49.0
0.08871154,-0.039397806,0.6053928,38.0,27.0,29.0
0.08732959,-0.03687385,0.60444796,36.0,30.0,29.0
0.08871154,-0.034114134,0.6053928,46.0,28.0,44.0
0.08871154,-0.0314723,0.6053928,34.0,32.0,53.0
0.08939924,-0.028784454,0.605863,37.0,35.0,60.0
0.08871154,-0.02618863,0.6053928,40.0,34.0,54.0
0.08939924,-0.023509216,0.605863,38.0,33.0,4.0
0.08871154,-0.02090496,0.6053928,40.0,21.0,12.0
0.08871154,-0.018263126,0.6053928,41.0,26.0,49.0
0.08802167,-0.0156463,0.60492116,31.0,21.0,48.0
0.08871154,-0.012979455,0.6053928,38.0,24.0,54.0
0.08939924,-0.010321122,0.605863,38.0,24.0,54.0
0.08939924,-0.007683503,0.605863,42.0,30.0,56.0
0.08871154,-0.00505395,0.6053928,38.0,32.0,58.0
0.08732959,-0.0024198508,0.60444796,36.0,32.0,63.0
0.08732959,2.3045685E-4,0.60444796,44.0,29.0,54.0
0.08802167,0.0028761525,0.60492116,40.0,24.0,52.0
0.08871154,0.00551339,0.6053928,39.0,29.0,47.0
0.08871154,0.008155225,0.6053928,44.0,39.0,56.0
0.08939924,0.010779829,0.605863,42.0,32.0,45.0
0.08871154,0.013438895,0.6053928,44.0,36.0,67.0
0.08871154,0.01608073,0.6053928,44.0,37.0,70.0
0.08802167,0.01875254,0.60492116,43.0,27.0,57.0
0.08871154,0.0213644,0.6053928,47.0,35.0,69.0
0.08871154,0.024006234,0.6053928,47.0,34.0,66.0
0.08802167,0.026690733,0.60492116,54.0,42.0,64.0
0.08732959,0.029383842,0.60444796,47.0,38.0,93.0
0.08732959,0.032034148,0.60444796,50.0,41.0,82.0
0.08732959,0.034684457,0.60444796,48.0,38.0,71.0
0.08732959,0.037334763,0.60444796,44.0,30.0,55.0
0.08732959,0.039985072,0.60444796,48.0,46.0,75.0
0.08732959,0.04263538,0.60444796,47.0,37.0,63.0
0.08732959,0.045285687,0.60444796,52.0,32.0,56.0
0.08663528,0.048012987,0.60397327,43.0,29.0,71.0
0.08663528,0.05066755,0.60397327,40.0,33.0,21.0
0.08663528,0.053322114,0.60397327,43.0,37.0,28.0
0.08663528,0.05597668,0.60397327,42.0,23.0,62.0
0.08663528,0.058631245,0.60397327,41.0,34.0,77.0
0.085938744,0.0613844,0.6034971,41.0,29.0,52.0
0.085938744,0.06404323,0.6034971,33.0,28.0,64.0
0.085938744,0.06670207,0.6034971,46.0,27.0,61.0
0.085938744,0.069360904,0.6034971,39.0,22.0,81.0
0.08877504,-0.052439336,0.6086001,53.0,32.0,65.0
0.08877504,-0.04980592,0.6086001,47.0,37.0,56.0
0.08877504,-0.047172505,0.6086001,47.0,26.0,46.0
0.08877504,-0.044539087,0.6086001,46.0,35.0,65.0
0.08877504,-0.04190567,0.6086001,55.0,31.0,57.0
0.08808748,-0.03933493,0.60813504,42.0,31.0,67.0
0.08808748,-0.03669731,0.60813504,44.0,26.0,54.0
0.08808748,-0.034059692,0.60813504,44.0,27.0,54.0
0.08808748,-0.03142207,0.60813504,52.0,44.0,57.0
0.08808748,-0.028784454,0.60813504,47.0,38.0,72.0
0.08808748,-0.026146835,0.60813504,45.0,39.0,67.0
0.08877504,-0.023471758,0.6086001,42.0,36.0,69.0
0.08808748,-0.020871596,0.60813504,41.0,29.0,46.0
0.08808748,-0.018233977,0.60813504,41.0,27.0,52.0
0.08808748,-0.015596359,0.60813504,36.0,23.0,46.0
0.08808748,-0.012958741,0.60813504,45.0,26.0,63.0
0.08877504,-0.010304676,0.6086001,44.0,35.0,83.0
0.08877504,-0.0076712607,0.6086001,46.0,30.0,64.0
0.08808748,-0.0050458843,0.60813504,47.0,36.0,72.0
0.08808748,-0.0024082654,0.60813504,53.0,32.0,68.0
0.08808748,2.2935349E-4,0.60813504,48.0,37.0,63.0
0.08808748,0.0028669722,0.60813504,47.0,30.0,60.0
0.08877504,0.0054958207,0.6086001,48.0,26.0,71.0
0.08877504,0.008129236,0.6086001,46.0,39.0,70.0
0.08877504,0.010762653,0.6086001,47.0,34.0,48.0
0.08808748,0.013417448,0.60813504,56.0,34.0,75.0
0.08808748,0.016055066,0.60813504,49.0,41.0,74.0
0.08739768,0.018722566,0.6076685,51.0,36.0,69.0
0.08739768,0.0213644,0.6076685,61.0,36.0,76.0
0.08877504,0.023929734,0.6086001,52.0,37.0,74.0
0.08739768,0.02664807,0.6076685,43.0,40.0,65.0
0.08739768,0.029289905,0.6076685,46.0,43.0,66.0
0.08670571,0.03198286,0.6072005,51.0,43.0,98.0
0.08739768,0.034573574,0.6076685,50.0,39.0,85.0
0.08739768,0.03721541,0.6076685,55.0,37.0,77.0
0.08739768,0.039857246,0.6076685,47.0,44.0,75.0
0.08739768,0.04249908,0.6076685,47.0,35.0,59.0
0.08670571,0.045213185,0.6072005,42.0,27.0,64.0
0.08670571,0.047859248,0.6072005,37.0,24.0,36.0
0.08670571,0.050505314,0.6072005,28.0,32.0,45.0
0.08670571,0.05315138,0.6072005,39.0,32.0,58.0
0.086011514,0.055886917,0.60673094,40.0,21.0,67.0
0.086011514,0.058537226,0.60673094,31.0,36.0,71.0
0.086011514,0.06118753,0.60673094,43.0,34.0,47.0
0.086011514,0.06383784,0.60673094,42.0,25.0,84.0
0.086011514,0.06648815,0.60673094,44.0,23.0,60.0
0.085315086,0.0692495,0.60625994,41.0,29.0,72.0
0.08952122,-0.052189868,0.61224395,39.0,25.0,59.0
0.08952122,-0.049568977,0.61224395,48.0,32.0,61.0
0.08883812,-0.047022656,0.61178696,46.0,35.0,39.0
0.08815283,-0.044468235,0.6113284,44.0,41.0,31.0
0.08952122,-0.041706312,0.61224395,44.0,34.0,43.0
0.08952122,-0.039085425,0.61224395,43.0,31.0,3.0
0.08952122,-0.03646454,0.61224395,43.0,29.0,48.0
0.08883812,-0.033897404,0.61178696,49.0,33.0,26.0
0.08815283,-0.0313221,0.6113284,45.0,43.0,48.0
0.08815283,-0.028692873,0.6113284,45.0,38.0,67.0
0.08746536,-0.026105175,0.6108685,42.0,37.0,57.0
0.08815283,-0.02343442,0.6113284,40.0,34.0,43.0
0.08746536,-0.02083834,0.6108685,47.0,34.0,14.0
0.08746536,-0.018204926,0.6108685,38.0,32.0,22.0
0.08815283,-0.015546738,0.6113284,31.0,23.0,43.0
0.08883812,-0.012896994,0.61178696,40.0,28.0,47.0
0.08883812,-0.010271943,0.61178696,44.0,27.0,63.0
0.08883812,-0.007646892,0.61178696,40.0,26.0,50.0
0.08746536,-0.005037844,0.6108685,37.0,34.0,59.0
0.08815283,-0.0024006031,0.6113284,44.0,31.0,14.0
0.08815283,2.2862377E-4,0.6113284,46.0,38.0,49.0
0.08883812,0.0028533116,0.61178696,46.0,36.0,56.0
0.08883812,0.0054783626,0.61178696,45.0,26.0,64.0
0.08883812,0.0081034135,0.61178696,41.0,34.0,47.0
0.08883812,0.010728464,0.61178696,47.0,26.0,57.0
0.08815283,0.013374759,0.6113284,42.0,34.0,50.0
0.08746536,0.016029485,0.6108685,45.0,40.0,55.0
0.08746536,0.018662902,0.6108685,42.0,35.0,47.0
0.08815283,0.021262439,0.6113284,46.0,39.0,55.0
0.08952122,0.023815893,0.61224395,37.0,34.0,49.0
0.08883812,0.026478771,0.61178696,50.0,42.0,56.0
0.08677571,0.02924316,0.61040705,46.0,44.0,27.0
0.08677571,0.03188078,0.61040705,42.0,37.0,67.0
0.08677571,0.0345184,0.61040705,43.0,35.0,63.0
0.08746536,0.037096813,0.6108685,46.0,41.0,64.0
0.08815283,0.03966703,0.6113284,35.0,35.0,61.0
0.08815283,0.042296253,0.6113284,41.0,34.0,52.0
0.08746536,0.044997063,0.6108685,43.0,23.0,56.0
0.08746536,0.04763048,0.6108685,36.0,23.0,31.0
0.08883812,0.05010423,0.61178696,33.0,27.0,39.0
0.08677571,0.05298173,0.61040705,39.0,28.0,35.0
0.08677571,0.055619348,0.61040705,39.0,27.0,50.0
0.08677571,0.05825697,0.61040705,43.0,39.0,71.0
0.086083815,0.060991924,0.60994416,39.0,24.0,68.0
0.086083815,0.06363376,0.60994416,38.0,29.0,67.0
0.08677571,0.06616982,0.61040705,37.0,28.0,74.0
0.086083815,0.06891743,0.60994416,32.0,33.0,64.0
0.08890081,-0.052107234,0.61495364,40.0,25.0,26.0
0.08890081,-0.049490497,0.61495364,32.0,34.0,34.0
0.08890081,-0.04687376,0.61495364,42.0,34.0,53.0
0.08821778,-0.044327203,0.6145016,43.0,40.0,51.0
0.08890081,-0.04164028,0.61495364,40.0,29.0,39.0
0.08958165,-0.038961858,0.61540425,40.0,39.0,56.0
0.08958165,-0.036349256,0.61540425,48.0,34.0,36.0
0.08958165,-0.033736654,0.61540425,47.0,36.0,43.0
0.08958165,-0.03112405,0.61540425,48.0,46.0,44.0
0.08890081,-0.028556587,0.61495364,51.0,44.0,60.0
0.08890081,-0.025939848,0.61495364,45.0,49.0,62.0
0.08821778,-0.023360096,0.6145016,46.0,50.0,45.0
0.08821778,-0.020739207,0.6145016,51.0,35.0,55.0
0.08821778,-0.01811832,0.6145016,40.0,37.0,56.0
0.08821778,-0.015497431,0.6145016,37.0,41.0,47.0
0.08890081,-0.012856156,0.61495364,37.0,31.0,42.0
0.08890081,-0.010239417,0.61495364,41.0,36.0,44.0
0.08890081,-0.0076226783,0.61495364,49.0,37.0,51.0
0.08821778,-0.005013878,0.6145016,47.0,40.0,51.0
0.08821778,-0.0023929896,0.6145016,52.0,44.0,59.0
0.08821778,2.278987E-4,0.6145016,43.0,37.0,55.0
0.08821778,0.002848787,0.6145016,46.0,33.0,56.0
0.08821778,0.005469675,0.6145016,45.0,38.0,52.0
0.08821778,0.008090563,0.6145016,42.0,36.0,69.0
0.08821778,0.010711452,0.6145016,42.0,34.0,64.0
0.08753261,0.013353515,0.6140482,42.0,36.0,58.0
0.08753261,0.015978567,0.6140482,45.0,37.0,68.0
0.08684524,0.018633213,0.6135933,49.0,45.0,68.0
0.08821778,0.021195006,0.6145016,50.0,48.0,44.0
0.08821778,0.023815893,0.6145016,45.0,42.0,54.0
0.08821778,0.026436782,0.6145016,48.0,44.0,63.0
0.08890081,0.029011663,0.61495364,48.0,43.0,62.0
0.08821778,0.031678557,0.6145016,43.0,41.0,64.0
0.08753261,0.034353923,0.6140482,42.0,42.0,50.0
0.08753261,0.036978975,0.6140482,45.0,44.0,70.0
0.08821778,0.039541222,0.6145016,41.0,37.0,50.0
0.08821778,0.042162113,0.6145016,39.0,33.0,52.0
0.08753261,0.044854127,0.6140482,37.0,32.0,48.0
0.08753261,0.04747918,0.6140482,37.0,41.0,71.0
0.08821778,0.050024778,0.6145016,39.0,33.0,47.0
0.08546394,0.05298173,0.6126791,42.0,33.0,43.0
0.08615568,0.055530727,0.6131369,41.0,30.0,52.0
0.08615568,0.058164146,0.6131369,37.0,36.0,49.0
0.08684524,0.060700845,0.6135933,38.0,40.0,74.0
0.08615568,0.06343098,0.6131369,33.0,39.0,68.0
0.08615568,0.066064395,0.6131369,33.0,33.0,32.0
0.08684524,0.068588525,0.6135933,39.0,37.0,42.0
0.090318136,-0.054379594,0.6189873,67.0,54.0,84.0
0.08964168,-0.05186091,0.6185445,38.0,33.0,59.0
0.08964168,-0.04925654,0.6185445,45.0,44.0,29.0
0.08964168,-0.04665217,0.6185445,43.0,36.0,38.0
0.090318136,-0.04397851,0.6189873,44.0,34.0,59.0
0.08964168,-0.041443437,0.6185445,41.0,37.0,53.0
0.08964168,-0.03883907,0.6185445,44.0,34.0,64.0
0.08896308,-0.036291886,0.61810035,45.0,33.0,47.0
0.08964168,-0.03363033,0.6185445,49.0,31.0,44.0
0.08964168,-0.031025961,0.6185445,45.0,40.0,40.0
0.08896308,-0.028466448,0.61810035,48.0,46.0,37.0
0.08828233,-0.025898844,0.61765474,48.0,41.0,78.0
0.087599434,-0.02332311,0.6172077,45.0,37.0,62.0
0.08828233,-0.02067364,0.61765474,44.0,37.0,38.0
0.08964168,-0.018004118,0.6185445,39.0,37.0,54.0
0.08964168,-0.015399749,0.6185445,34.0,37.0,59.0
0.08896308,-0.012815575,0.61810035,39.0,29.0,54.0
0.08896308,-0.010207096,0.61810035,45.0,37.0,48.0
0.08896308,-0.007598617,0.61810035,46.0,40.0,51.0
0.08828233,-0.0049980264,0.61765474,45.0,35.0,59.0
0.08896308,-0.0023816593,0.61810035,47.0,35.0,69.0
0.08828233,2.2717819E-4,0.61765474,44.0,34.0,60.0
0.08828233,0.0028397804,0.61765474,46.0,37.0,45.0
0.08828233,0.005452383,0.61765474,47.0,39.0,67.0
0.08828233,0.008064985,0.61765474,44.0,36.0,66.0
0.08828233,0.010677587,0.61765474,44.0,34.0,58.0
0.087599434,0.0133112315,0.6172077,46.0,39.0,58.0
0.087599434,0.01592797,0.6172077,46.0,34.0,51.0
0.08691433,0.018574117,0.61675924,48.0,40.0,76.0
0.087599434,0.021161446,0.6172077,48.0,45.0,64.0
0.087599434,0.023778185,0.6172077,46.0,45.0,64.0
0.08828233,0.0263532,0.61765474,48.0,42.0,62.0
0.08828233,0.028965803,0.61765474,49.0,41.0,67.0
0.08828233,0.031578407,0.61765474,49.0,35.0,68.0
0.087599434,0.03424514,0.6172077,45.0,41.0,85.0
0.08828233,0.03680361,0.61765474,45.0,39.0,65.0
0.08828233,0.039416213,0.61765474,45.0,36.0,52.0
0.08828233,0.042028815,0.61765474,37.0,30.0,52.0
0.087599434,0.044712096,0.6172077,31.0,26.0,51.0
0.08691433,0.047403887,0.61675924,42.0,33.0,53.0
0.08691433,0.050024778,0.61675924,41.0,25.0,48.0
0.08553765,0.05281316,0.6158581,45.0,28.0,48.0
0.08622709,0.05535433,0.6163094,44.0,28.0,78.0
0.08553765,0.058071617,0.6158581,40.0,38.0,48.0
0.08691433,0.06050833,0.61675924,42.0,30.0,58.0
0.08691433,0.06312922,0.61675924,40.0,28.0,56.0
0.08691433,0.06575011,0.61675924,33.0,32.0,51.0
0.087599434,0.06826274,0.6172077,42.0,36.0,76.0
0.09104775,-0.05412413,0.6225368,101.0,100.0,127.0
0.09037562,-0.0516169,0.62210166,42.0,37.0,56.0
0.089701325,-0.049101796,0.6216651,48.0,46.0,54.0
0.089024946,-0.04657878,0.6212272,42.0,36.0,62.0
0.089701325,-0.043909423,0.6216651,43.0,37.0,72.0
0.089701325,-0.04131324,0.6216651,43.0,39.0,76.0
0.089024946,-0.038777966,0.6212272,47.0,34.0,76.0
0.08834645,-0.0362347,0.6207879,43.0,34.0,70.0
0.089024946,-0.03357742,0.6212272,45.0,35.0,60.0
0.089024946,-0.03097715,0.6212272,44.0,39.0,57.0
0.08834645,-0.028421594,0.6207879,44.0,45.0,88.0
0.08834645,-0.025817225,0.6207879,49.0,47.0,94.0
0.08834645,-0.023212856,0.6207879,48.0,41.0,72.0
0.08834645,-0.020608487,0.6207879,47.0,34.0,56.0
0.089024946,-0.017975794,0.6212272,41.0,36.0,64.0
0.089024946,-0.015375522,0.6212272,37.0,35.0,55.0
0.089701325,-0.012755183,0.6216651,42.0,33.0,39.0
0.089024946,-0.010174979,0.6212272,48.0,40.0,47.0
0.089024946,-0.007574708,0.6212272,48.0,39.0,63.0
0.089024946,-0.004974437,0.6212272,46.0,40.0,63.0
0.089024946,-0.0023741655,0.6212272,46.0,33.0,80.0
0.08834645,2.2646223E-4,0.6207879,44.0,36.0,62.0
0.08834645,0.0028308309,0.6207879,43.0,39.0,58.0
0.08834645,0.0054351995,0.6207879,41.0,40.0,67.0
0.08834645,0.008039569,0.6207879,43.0,32.0,49.0
0.08834645,0.010643937,0.6207879,43.0,35.0,47.0
0.08834645,0.013248306,0.6207879,46.0,30.0,31.0
0.08834645,0.015852675,0.6207879,44.0,33.0,62.0
0.087665804,0.018486172,0.62034726,46.0,34.0,74.0
0.086983,0.021127997,0.61990523,47.0,43.0,69.0
0.086983,0.023740599,0.61990523,44.0,42.0,60.0
0.08834645,0.02627015,0.6207879,45.0,45.0,50.0
0.087665804,0.028920088,0.62034726,49.0,41.0,66.0
0.08834645,0.031478886,0.6207879,53.0,43.0,53.0
0.08834645,0.034083255,0.6207879,52.0,43.0,31.0
0.08834645,0.036687624,0.6207879,42.0,33.0,63.0
0.08834645,0.039291993,0.6207879,44.0,42.0,46.0
0.08834645,0.04189636,0.6207879,36.0,37.0,52.0
0.087665804,0.044570964,0.62034726,28.0,30.0,45.0
0.087665804,0.047179442,0.62034726,40.0,26.0,54.0
0.086983,0.04986662,0.61990523,39.0,30.0,54.0
0.086298056,0.05256231,0.6194618,43.0,34.0,49.0
0.086298056,0.05517905,0.6194618,37.0,26.0,54.0
0.086298056,0.05779579,0.6194618,36.0,22.0,41.0
0.08561089,0.06050833,0.6190169,38.0,21.0,40.0
0.086298056,0.06302927,0.6194618,35.0,21.0,33.0
0.086983,0.065542236,0.61990523,30.0,16.0,24.0
0.086983,0.06815484,0.61990523,29.0,21.0,28.0
0.08976063,-0.05412413,0.6247662,87.0,78.0,91.0
0.09043272,-0.051455498,0.62519646,39.0,33.0,68.0
0.08976063,-0.04894802,0.6247662,43.0,33.0,54.0
0.08908648,-0.04643267,0.6243345,38.0,33.0,62.0
0.08908648,-0.043840557,0.6243345,39.0,33.0,57.0
0.08908648,-0.04124844,0.6243345,37.0,35.0,57.0
0.08841017,-0.03871705,0.6239015,40.0,34.0,46.0
0.087731756,-0.03617769,0.6234671,40.0,28.0,42.0
0.08908648,-0.033472095,0.6243345,42.0,27.0,56.0
0.08976063,-0.030831628,0.6247662,47.0,38.0,63.0
0.08908648,-0.028287867,0.6243345,40.0,31.0,79.0
0.08908648,-0.025695752,0.6243345,41.0,48.0,108.0
0.087731756,-0.023176337,0.6234671,41.0,42.0,84.0
0.087731756,-0.020576065,0.6234671,48.0,35.0,61.0
0.08841017,-0.017947556,0.6239015,44.0,41.0,90.0
0.08976063,-0.015303292,0.6247662,38.0,32.0,43.0
0.08976063,-0.012715236,0.6247662,41.0,32.0,52.0
0.08976063,-0.01012718,0.6247662,43.0,41.0,57.0
0.08908648,-0.007550948,0.6243345,41.0,37.0,71.0
0.08841017,-0.0049666227,0.6239015,41.0,41.0,55.0
0.08908648,-0.0023667181,0.6243345,39.0,30.0,52.0
0.08908648,2.2539671E-4,0.6243345,38.0,26.0,58.0
0.08908648,0.0028175116,0.6243345,42.0,34.0,55.0
0.08841017,0.005418124,0.6239015,41.0,36.0,70.0
0.08841017,0.008014311,0.6239015,45.0,35.0,64.0
0.08841017,0.010610498,0.6239015,55.0,40.0,70.0
0.08841017,0.013206684,0.6239015,56.0,27.0,57.0
0.08841017,0.015802871,0.6239015,46.0,31.0,62.0
0.087731756,0.018428005,0.6234671,48.0,31.0,60.0
0.087731756,0.021028277,0.6234671,46.0,37.0,58.0
0.087731756,0.023628548,0.6234671,42.0,36.0,47.0
0.087731756,0.026228819,0.6234671,42.0,31.0,48.0
0.087731756,0.02882909,0.6234671,47.0,35.0,40.0
0.087731756,0.03142936,0.6234671,47.0,39.0,68.0
0.087731756,0.034029633,0.6234671,46.0,34.0,34.0
0.087731756,0.036629904,0.6234671,34.0,37.0,61.0
0.087731756,0.039230175,0.6234671,44.0,37.0,51.0
0.08705122,0.04189636,0.6230313,43.0,37.0,57.0
0.08705122,0.04450073,0.6230313,41.0,31.0,64.0
0.08705122,0.047105096,0.6230313,45.0,24.0,48.0
0.08705122,0.049709465,0.6230313,41.0,29.0,47.0
0.08705122,0.052313834,0.6230313,53.0,25.0,46.0
0.08636853,0.05500488,0.62259424,36.0,24.0,66.0
0.08636853,0.057613358,0.62259424,30.0,22.0,22.0
0.08705122,0.06012694,0.6230313,30.0,13.0,15.0
0.087731756,0.06263262,0.6234671,30.0,12.0,29.0
0.08705122,0.065335676,0.6230313,21.0,15.0,27.0
0.08636853,0.06804727,0.62259424,17.0,17.0,28.0
0.08981954,-0.053955156,0.62784785,67.0,54.0,90.0
0.08981954,-0.05137518,0.62784785,35.0,34.0,49.0
0.08914761,-0.048871487,0.62742233,42.0,27.0,27.0
0.08981954,-0.046215225,0.62784785,37.0,25.0,84.0
0.08914761,-0.04370347,0.62742233,36.0,30.0,17.0
0.08914761,-0.04111946,0.62742233,31.0,30.0,42.0
0.08914761,-0.03853545,0.62742233,40.0,28.0,50.0
0.09115721,-0.035783604,0.62869483,39.0,25.0,48.0
0.08914761,-0.033367433,0.62742233,48.0,29.0,35.0
0.08914761,-0.030783422,0.62742233,38.0,31.0,104.0
0.08914761,-0.028199412,0.62742233,32.0,26.0,60.0
0.08914761,-0.025615403,0.62742233,37.0,41.0,88.0
0.08847351,-0.02306746,0.6269955,35.0,33.0,77.0
0.08914761,-0.020447385,0.62742233,45.0,27.0,66.0
0.08981954,-0.01783549,0.62784785,44.0,43.0,93.0
0.08981954,-0.0152555145,0.62784785,35.0,37.0,72.0
0.08914761,-0.012695355,0.62742233,36.0,29.0,43.0
0.08914761,-0.010111346,0.62742233,42.0,33.0,49.0
0.08914761,-0.0075273365,0.62742233,38.0,29.0,58.0
0.08914761,-0.004943327,0.62742233,34.0,41.0,60.0
0.08914761,-0.0023593176,0.62742233,37.0,20.0,1.0
0.08914761,2.246919E-4,0.62742233,30.0,24.0,52.0
0.08981954,0.0028043173,0.62784785,36.0,24.0,55.0
0.08847351,0.0054011554,0.6269955,38.0,30.0,64.0
0.08847351,0.007989212,0.6269955,33.0,29.0,37.0
0.08847351,0.010577268,0.6269955,36.0,25.0,39.0
0.08847351,0.013165323,0.6269955,39.0,21.0,31.0
0.08847351,0.01575338,0.6269955,36.0,25.0,29.0
0.08847351,0.018341435,0.6269955,40.0,26.0,46.0
0.08847351,0.020929491,0.6269955,45.0,25.0,29.0
0.087797344,0.02355443,0.62656736,40.0,25.0,47.0
0.08847351,0.026105603,0.6269955,38.0,27.0,53.0
0.08847351,0.02869366,0.6269955,41.0,34.0,48.0
0.08847351,0.031281713,0.6269955,43.0,37.0,34.0
0.08847351,0.03386977,0.6269955,42.0,36.0,38.0
0.08847351,0.036457825,0.6269955,38.0,31.0,33.0
0.087797344,0.039107118,0.62656736,39.0,33.0,67.0
0.08711901,0.04176474,0.6261378,36.0,29.0,72.0
0.08643857,0.044430718,0.625707,43.0,31.0,57.0
0.08643857,0.04703099,0.625707,40.0,28.0,87.0
0.087797344,0.04947558,0.62656736,39.0,28.0,38.0
0.087797344,0.052067693,0.62656736,43.0,23.0,29.0
0.087797344,0.05465981,0.62656736,35.0,25.0,34.0
0.087797344,0.057251923,0.62656736,26.0,26.0,43.0
0.087797344,0.05984404,0.62656736,26.0,12.0,44.0
0.087797344,0.062436152,0.62656736,25.0,14.0,45.0
0.08847351,0.064926445,0.6269955,28.0,12.0,26.0
0.08643857,0.06783316,0.625707,28.0,17.0,1.0
0.08987811,-0.053787228,0.63091034,52.0,63.0,100.0
0.08987811,-0.051215284,0.63091034,45.0,35.0,59.0
0.08853644,-0.0487952,0.6300702,43.0,34.0,47.0
0.08920831,-0.046143197,0.6304909,39.0,28.0,50.0
0.08920831,-0.043567244,0.6304909,38.0,39.0,23.0
0.08987811,-0.040927496,0.63091034,41.0,31.0,51.0
0.08987811,-0.03835555,0.63091034,42.0,34.0,53.0
0.09054578,-0.035728008,0.6313284,39.0,25.0,61.0
0.08987811,-0.03321166,0.63091034,45.0,31.0,69.0
0.08987811,-0.030639712,0.63091034,44.0,47.0,88.0
0.08920831,-0.028111512,0.6304909,47.0,47.0,93.0
0.08920831,-0.025535557,0.6304909,47.0,68.0,105.0
0.08920831,-0.022959603,0.6304909,45.0,56.0,92.0
0.08987811,-0.020351928,0.63091034,55.0,61.0,104.0
0.08987811,-0.017779982,0.63091034,49.0,61.0,129.0
0.08987811,-0.015208035,0.63091034,45.0,53.0,106.0
0.08920831,-0.012655783,0.6304909,33.0,36.0,87.0
0.08920831,-0.010079828,0.6304909,33.0,40.0,70.0
0.08987811,-0.007492196,0.63091034,41.0,33.0,68.0
0.08987811,-0.0049202493,0.63091034,42.0,40.0,84.0
0.08987811,-0.0023483033,0.63091034,42.0,31.0,66.0
0.08987811,2.2364296E-4,0.63091034,34.0,28.0,47.0
0.08987811,0.0027955892,0.63091034,33.0,29.0,46.0
0.08853644,0.0053842934,0.6300702,36.0,25.0,43.0
0.087862514,0.00797672,0.6296482,39.0,27.0,56.0
0.087862514,0.01056073,0.6296482,41.0,25.0,55.0
0.087862514,0.013144739,0.6296482,34.0,22.0,60.0
0.087862514,0.01572875,0.6296482,33.0,28.0,46.0
0.08853644,0.018284174,0.6300702,35.0,27.0,55.0
0.08853644,0.02086415,0.6300702,34.0,21.0,63.0
0.08853644,0.023444125,0.6300702,36.0,22.0,57.0
0.08853644,0.026024101,0.6300702,38.0,21.0,51.0
0.08920831,0.028559495,0.6304909,37.0,31.0,59.0
0.08920831,0.031135451,0.6304909,34.0,35.0,49.0
0.08853644,0.03376403,0.6300702,37.0,34.0,66.0
0.087862514,0.036400825,0.6296482,38.0,35.0,53.0
0.087862514,0.038984835,0.6296482,42.0,31.0,64.0
0.08650821,0.041699234,0.6288002,38.0,20.0,65.0
0.087186396,0.044221994,0.62922484,40.0,26.0,61.0
0.087862514,0.046736863,0.6296482,33.0,34.0,49.0
0.087862514,0.049320873,0.6296482,37.0,28.0,41.0
0.087862514,0.05190488,0.6296482,34.0,26.0,48.0
0.087186396,0.054574218,0.62922484,45.0,26.0,41.0
0.087862514,0.0570729,0.6296482,33.0,29.0,48.0
0.087862514,0.05965691,0.6296482,25.0,20.0,50.0
0.087862514,0.06224092,0.6296482,27.0,17.0,33.0
0.087186396,0.064926445,0.62922484,22.0,6.0,28.0
0.087186396,0.0675145,0.62922484,22.0,13.0,21.0
0.089936286,-0.053620346,0.6339538,44.0,47.0,102.0
0.08926866,-0.05113571,0.63354045,49.0,38.0,80.0
0.08926866,-0.04856776,0.63354045,57.0,44.0,71.0
0.089936286,-0.04592845,0.6339538,47.0,39.0,56.0
0.089936286,-0.04336448,0.6339538,42.0,37.0,62.0
0.089936286,-0.040800516,0.6339538,47.0,38.0,44.0
0.089936286,-0.038236547,0.6339538,45.0,51.0,69.0
0.09060185,-0.035617325,0.6343659,43.0,42.0,85.0
0.09126531,-0.033006206,0.6347767,49.0,47.0,95.0
0.09060185,-0.030497337,0.6343659,53.0,58.0,88.0
0.08926866,-0.028024158,0.63354045,53.0,61.0,102.0
0.089936286,-0.025416715,0.6339538,53.0,55.0,97.0
0.089936286,-0.022852749,0.6339538,47.0,54.0,75.0
0.089936286,-0.020288782,0.6339538,56.0,60.0,109.0
0.089936286,-0.017724816,0.6339538,55.0,67.0,143.0
0.089936286,-0.015160849,0.6339538,55.0,67.0,125.0
0.089936286,-0.012596883,0.6339538,52.0,78.0,119.0
0.089936286,-0.010032916,0.6339538,52.0,61.0,152.0
0.09126531,-0.0074458485,0.6347767,51.0,76.0,139.0
0.09060185,-0.0048973863,0.6343659,53.0,64.0,125.0
0.089936286,-0.0023410174,0.6339538,43.0,45.0,78.0
0.089936286,2.2294906E-4,0.6339538,43.0,33.0,62.0
0.08926866,0.0027912457,0.63354045,34.0,30.0,1.0
0.08926866,0.005359196,0.63354045,33.0,27.0,35.0
0.08926866,0.007927147,0.63354045,35.0,27.0,23.0
0.08926866,0.010495096,0.63354045,35.0,24.0,33.0
0.08926866,0.013063047,0.63354045,31.0,30.0,35.0
0.08926866,0.015630998,0.63354045,33.0,26.0,22.0
0.08926866,0.018198948,0.63354045,37.0,22.0,32.0
0.08926866,0.020766897,0.63354045,30.0,26.0,56.0
0.08926866,0.023334848,0.63354045,37.0,29.0,52.0
0.08926866,0.025902798,0.63354045,30.0,26.0,62.0
0.08926866,0.028470749,0.63354045,35.0,26.0,65.0
0.08926866,0.0310387,0.63354045,42.0,31.0,57.0
0.08926866,0.03360665,0.63354045,40.0,31.0,90.0
0.088599004,0.036230892,0.6331258,42.0,26.0,61.0
0.088599004,0.038802836,0.6331258,35.0,33.0,62.0
0.087927215,0.04143927,0.63270986,36.0,27.0,41.0
0.087927215,0.044015225,0.63270986,39.0,27.0,54.0
0.08725335,0.04666391,0.6322926,37.0,22.0,50.0
0.087927215,0.049167134,0.63270986,42.0,34.0,46.0
0.08725335,0.051823862,0.6322926,40.0,30.0,60.0
0.08725335,0.054403838,0.6322926,39.0,31.0,47.0
0.087927215,0.056895,0.63270986,34.0,32.0,66.0
0.08725335,0.05956379,0.6322926,37.0,33.0,54.0
0.087927215,0.062046908,0.63270986,41.0,28.0,50.0
0.088599004,0.064522296,0.6331258,35.0,20.0,43.0
0.088599004,0.067094244,0.6331258,35.0,31.0,22.0
0.08725335,0.06988369,0.6322926,36.0,30.0,27.0
0.09131885,-0.055837825,0.6377895,141.0,113.0,112.0
0.09131885,-0.05328967,0.6377895,60.0,58.0,78.0
0.09131885,-0.050741516,0.6377895,60.0,58.0,67.0
0.090657525,-0.048267774,0.63738465,51.0,44.0,76.0
0.090657525,-0.045715686,0.63738465,49.0,38.0,73.0
0.09131885,-0.043097053,0.6377895,56.0,47.0,64.0
0.08999412,-0.040674314,0.6369785,56.0,42.0,70.0
0.089328684,-0.038177323,0.6365711,61.0,65.0,89.0
0.08999412,-0.035562243,0.6369785,58.0,63.0,110.0
0.090657525,-0.03295524,0.63738465,69.0,72.0,87.0
0.090657525,-0.030403152,0.63738465,66.0,72.0,90.0
0.090657525,-0.027851062,0.63738465,73.0,71.0,89.0
0.089328684,-0.025377346,0.6365711,67.0,67.0,82.0
0.089328684,-0.02281735,0.6365711,62.0,66.0,91.0
0.08999412,-0.020226028,0.6369785,58.0,59.0,85.0
0.08999412,-0.017669993,0.6369785,57.0,56.0,5.0
0.089328684,-0.015137366,0.6365711,57.0,54.0,91.0
0.08999412,-0.01255792,0.6369785,55.0,51.0,96.0
0.08999412,-0.010001884,0.6369785,49.0,19.0,76.0
0.090657525,-0.007434351,0.63738465,56.0,50.0,66.0
0.08999412,-0.0048898123,0.6369785,51.0,49.0,67.0
0.08999412,-0.0023337766,0.6369785,47.0,40.0,64.0
0.08999412,2.2225948E-4,0.6369785,45.0,30.0,35.0
0.089328684,0.0027825986,0.6365711,31.0,28.0,38.0
0.089328684,0.005342594,0.6365711,33.0,25.0,52.0
0.089328684,0.007902589,0.6365711,36.0,26.0,29.0
0.08999412,0.010446403,0.6369785,30.0,32.0,31.0
0.08866116,0.0130427815,0.6361624,29.0,18.0,1.0
0.089328684,0.015582574,0.6365711,22.0,31.0,20.0
0.089328684,0.018142568,0.6365711,41.0,26.0,23.0
0.08866116,0.02073468,0.6361624,29.0,25.0,32.0
0.08866116,0.023298647,0.6361624,42.0,43.0,49.0
0.08866116,0.025862614,0.6361624,33.0,28.0,63.0
0.08866116,0.02842658,0.6361624,22.0,26.0,45.0
0.08866116,0.030990547,0.6361624,35.0,32.0,32.0
0.089328684,0.033502538,0.6365711,27.0,32.0,49.0
0.08999412,0.036006764,0.6369785,39.0,25.0,39.0
0.08866116,0.038682446,0.6361624,40.0,32.0,58.0
0.08799155,0.0413105,0.63575244,39.0,30.0,42.0
0.08799155,0.04387845,0.63575244,36.0,32.0,64.0
0.08799155,0.0464464,0.63575244,33.0,23.0,50.0
0.08799155,0.049014352,0.63575244,39.0,26.0,42.0
0.087319896,0.051662568,0.6353413,38.0,30.0,36.0
0.087319896,0.054234516,0.6353413,37.0,32.0,43.0
0.087319896,0.05680646,0.6353413,34.0,33.0,25.0
0.08799155,0.05928615,0.63575244,40.0,42.0,41.0
0.08866116,0.061758142,0.6361624,41.0,40.0,62.0
0.08866116,0.06432211,0.6361624,34.0,29.0,64.0
0.08799155,0.06699,0.63575244,38.0,38.0,41.0
0.087319896,0.06966619,0.6353413,42.0,34.0,31.0
0.09202928,-0.053044327,0.6411816,86.0,80.0,81.0
0.090051584,-0.050741516,0.6399845,91.0,76.0,61.0
0.090051584,-0.04819336,0.6399845,96.0,76.0,61.0
0.09071287,-0.045574937,0.6403848,101.0,77.0,45.0
0.090051584,-0.043097053,0.6399845,93.0,77.0,53.0
0.089388296,-0.04061151,0.639583,85.0,70.0,58.0
0.08872293,-0.03811828,0.63918024,82.0,72.0,71.0
0.090051584,-0.03545259,0.6399845,80.0,72.0,64.0
0.09071287,-0.03285378,0.6403848,80.0,70.0,66.0
0.090051584,-0.030356279,0.6399845,77.0,69.0,73.0
0.090051584,-0.027808124,0.6399845,78.0,69.0,69.0
0.090051584,-0.02525997,0.6399845,81.0,62.0,39.0
0.089388296,-0.022746885,0.639583,81.0,68.0,75.0
0.089388296,-0.020194795,0.639583,79.0,66.0,70.0
0.089388296,-0.017642707,0.639583,78.0,59.0,60.0
0.089388296,-0.015090617,0.639583,76.0,51.0,70.0
0.089388296,-0.012538529,0.639583,70.0,57.0,62.0
0.089388296,-0.00998644,0.639583,74.0,52.0,70.0
0.089388296,-0.007434351,0.639583,75.0,51.0,52.0
0.090051584,-0.0048747347,0.6399845,71.0,50.0,43.0
0.090051584,-0.0023265802,0.6399845,64.0,54.0,62.0
0.090051584,2.2157414E-4,0.6399845,64.0,49.0,53.0
0.089388296,0.0027740053,0.639583,61.0,56.0,62.0
0.089388296,0.005326094,0.639583,57.0,41.0,57.0
0.089388296,0.007878183,0.639583,58.0,48.0,44.0
0.089388296,0.010430272,0.639583,57.0,55.0,40.0
0.089388296,0.012982361,0.639583,54.0,44.0,25.0
0.090051584,0.0155105,0.6399845,58.0,45.0,45.0
0.089388296,0.01808654,0.639583,55.0,43.0,67.0
0.08805552,0.028382549,0.63877624,46.0,34.0,43.0
0.08805552,0.030942544,0.63877624,45.0,45.0,44.0
0.08872293,0.033450726,0.63918024,44.0,39.0,54.0
0.089388296,0.035951164,0.639583,30.0,35.0,45.0
0.089388296,0.038503252,0.639583,33.0,36.0,71.0
0.08872293,0.041118834,0.63918024,43.0,37.0,58.0
0.08738602,0.04381038,0.638371,44.0,33.0,33.0
0.08738602,0.046374343,0.638371,45.0,30.0,36.0
0.08738602,0.04893831,0.638371,14.0,27.0,50.0
0.08872293,0.05134298,0.63918024,44.0,34.0,39.0
0.08805552,0.0539825,0.63877624,35.0,30.0,44.0
0.08872293,0.05645505,0.63918024,38.0,29.0,48.0
0.08872293,0.059011087,0.63918024,40.0,34.0,43.0
0.090051584,0.06137728,0.6399845,41.0,31.0,54.0
0.08805552,0.06422248,0.63877624,40.0,27.0,56.0
0.08738602,0.066886075,0.638371,30.0,26.0,33.0
0.08738602,0.06945004,0.638371,31.0,27.0,16.0
0.09010869,-0.05566618,0.642972,143.0,121.0,114.0
0.090767846,-0.053044327,0.64336646,94.0,90.0,96.0
0.09010869,-0.050585534,0.642972,86.0,64.0,65.0
0.090767846,-0.04797148,0.64336646,85.0,69.0,60.0
0.09010869,-0.04550489,0.642972,92.0,74.0,78.0
0.09010869,-0.04296457,0.642972,95.0,74.0,71.0
0.09010869,-0.04042425,0.642972,100.0,77.0,87.0
0.090767846,-0.03782579,0.64336646,90.0,71.0,60.0
0.09010869,-0.035343606,0.642972,91.0,62.0,57.0
0.09010869,-0.032803286,0.642972,86.0,73.0,76.0
0.090767846,-0.030216519,0.64336646,84.0,68.0,58.0
0.090767846,-0.027680097,0.64336646,89.0,68.0,53.0
0.090767846,-0.025143674,0.64336646,89.0,63.0,55.0
0.09010869,-0.022642,0.642972,85.0,61.0,74.0
0.08944755,-0.02013262,0.64257634,87.0,70.0,66.0
0.08878431,-0.017615506,0.6421795,85.0,59.0,62.0
0.08878431,-0.015067353,0.6421795,82.0,65.0,52.0
0.08944755,-0.012499926,0.64257634,83.0,68.0,32.0
0.09010869,-0.009940392,0.642972,85.0,58.0,58.0
0.08944755,-0.0074114623,0.64257634,74.0,55.0,52.0
0.08944755,-0.0048672305,0.64257634,88.0,65.0,59.0
0.09010869,-0.0023194284,0.642972,74.0,57.0,70.0
0.090767846,2.2055402E-4,0.64336646,88.0,71.0,77.0
0.090767846,0.0027569768,0.64336646,80.0,61.0,72.0
0.08944755,0.0053096963,0.64257634,75.0,52.0,69.0
0.08878431,0.007866037,0.6421795,75.0,50.0,74.0
0.08944755,0.01039816,0.64257634,80.0,59.0,68.0
0.08944755,0.012942391,0.64257634,80.0,63.0,101.0
0.08944755,0.015486623,0.64257634,78.0,56.0,72.0
0.08878431,0.018058656,0.6421795,69.0,49.0,24.0
0.08878431,0.028251274,0.6421795,77.0,59.0,24.0
0.08811907,0.030846983,0.6417814,75.0,58.0,36.0
0.08878431,0.03334758,0.6421795,73.0,54.0,48.0
0.08878431,0.035895735,0.6421795,81.0,59.0,63.0
0.08811907,0.038503252,0.6417814,71.0,51.0,90.0
0.08878431,0.040992044,0.6421795,70.0,50.0,67.0
0.08811907,0.04360743,0.6417814,71.0,56.0,45.0
0.08811907,0.046159517,0.6417814,71.0,53.0,45.0
0.08745174,0.048786942,0.64138204,71.0,60.0,54.0
0.08811907,0.051263697,0.6417814,75.0,62.0,80.0
0.08878431,0.053732816,0.6421795,70.0,50.0,65.0
0.08878431,0.05628097,0.6421795,66.0,48.0,54.0
0.08878431,0.058829125,0.6421795,68.0,56.0,45.0
0.08811907,0.06147205,0.6417814,72.0,51.0,56.0
0.08811907,0.06402414,0.6417814,63.0,41.0,57.0
0.08811907,0.06657623,0.6417814,63.0,37.0,29.0
0.08745174,0.06923523,0.64138204,61.0,34.0,35.0
0.0895064,-0.055580746,0.6455513,145.0,122.0,123.0
0.0895064,-0.053044327,0.6455513,117.0,99.0,102.0
0.090165466,-0.050430506,0.64594126,87.0,68.0,82.0
0.090822525,-0.04782469,0.64632994,88.0,66.0,74.0
0.090165466,-0.045365434,0.64594126,92.0,63.0,68.0
0.0895064,-0.042898633,0.6455513,93.0,61.0,59.0
0.0895064,-0.04036221,0.6455513,90.0,65.0,73.0
0.090822525,-0.03771004,0.64632994,89.0,57.0,77.0
0.0895064,-0.035289366,0.6455513,87.0,67.0,56.0
0.090165466,-0.032702755,0.64594126,86.0,62.0,51.0
0.09147756,-0.03007804,0.6467174,82.0,63.0,62.0
0.092130594,-0.027511215,0.6471038,85.0,56.0,79.0
0.090822525,-0.025066735,0.64632994,82.0,61.0,67.0
0.0895064,-0.022607252,0.6455513,81.0,58.0,68.0
0.0895064,-0.020070828,0.6455513,74.0,59.0,75.0
0.088182226,-0.017588388,0.64476794,77.0,54.0,52.0
0.08884532,-0.015021035,0.64516026,74.0,55.0,72.0
0.0895064,-0.01246156,0.6455513,78.0,59.0,83.0
0.090165466,-0.009909929,0.64594126,77.0,58.0,61.0
0.0895064,-0.0073887142,0.6455513,76.0,56.0,76.0
0.0895064,-0.0048522917,0.6455513,86.0,57.0,64.0
0.0895064,-0.0023158689,0.6455513,78.0,53.0,65.0
0.090165466,2.2021605E-4,0.64594126,84.0,60.0,45.0
0.090165466,0.0027527523,0.64594126,81.0,63.0,47.0
0.0895064,0.0052933996,0.6455513,79.0,56.0,52.0
0.0895064,0.007829823,0.6455513,84.0,60.0,67.0
0.0895064,0.010366245,0.6455513,82.0,64.0,69.0
0.0895064,0.012902668,0.6455513,83.0,55.0,74.0
0.08884532,0.015462821,0.64516026,92.0,57.0,68.0
0.0895064,0.017975513,0.6455513,84.0,52.0,52.0
0.0895064,0.020511936,0.6455513,82.0,53.0,64.0
0.090165466,0.023013042,0.64594126,77.0,48.0,73.0
0.090822525,0.025506493,0.64632994,85.0,64.0,57.0
0.0895064,0.028121205,0.6455513,79.0,58.0,58.0
0.08884532,0.03070475,0.64516026,76.0,50.0,31.0
0.08884532,0.03324507,0.64516026,80.0,44.0,30.0
0.08884532,0.035785392,0.64516026,98.0,58.0,61.0
0.0895064,0.038266897,0.6455513,85.0,58.0,44.0
0.08884532,0.040866036,0.64516026,84.0,56.0,39.0
0.08884532,0.043406356,0.64516026,83.0,61.0,59.0
0.08884532,0.045946676,0.64516026,80.0,59.0,73.0
0.08884532,0.048487,0.64516026,82.0,61.0,59.0
0.08751704,0.05118466,0.64437443,81.0,56.0,58.0
0.0895064,0.053485435,0.6455513,86.0,51.0,50.0
0.08884532,0.056107964,0.64516026,89.0,57.0,59.0
0.08884532,0.058648285,0.64516026,84.0,58.0,63.0
0.08751704,0.06137728,0.64437443,83.0,61.0,85.0
0.0895064,0.063631125,0.6455513,73.0,48.0,76.0
0.08884532,0.06626925,0.64516026,57.0,36.0,53.0
0.088182226,0.06891549,0.64476794,57.0,41.0,38.0
0.09087685,-0.055241637,0.6492753,142.0,124.0,115.0
0.09087685,-0.05272069,0.6492753,129.0,110.0,107.0
0.09087685,-0.050199743,0.6492753,88.0,65.0,77.0
0.09087685,-0.047678795,0.6492753,83.0,64.0,59.0
0.09087685,-0.045157846,0.6492753,83.0,67.0,39.0
0.090221904,-0.042702034,0.64889234,84.0,72.0,43.0
0.090221904,-0.040177234,0.64889234,83.0,67.0,58.0
0.09087685,-0.037595004,0.6492753,82.0,65.0,75.0
0.09087685,-0.03507406,0.6492753,83.0,72.0,69.0
0.091529794,-0.032503534,0.6496572,79.0,61.0,78.0
0.09087685,-0.030032162,0.6492753,80.0,65.0,72.0
0.091529794,-0.027469316,0.6496572,84.0,62.0,59.0
0.090221904,-0.025028443,0.64889234,73.0,64.0,84.0
0.08956495,-0.022538073,0.64850813,71.0,66.0,85.0
0.08956495,-0.020009411,0.64850813,66.0,68.0,93.0
0.08890596,-0.017507538,0.6481228,71.0,67.0,89.0
0.08890596,-0.014975001,0.6481228,65.0,64.0,98.0
0.08890596,-0.012442465,0.6481228,59.0,70.0,111.0
0.08956495,-0.009894767,0.64850813,64.0,67.0,101.0
0.08890596,-0.0073773926,0.6481228,68.0,65.0,77.0
0.08890596,-0.0048448564,0.6481228,72.0,54.0,44.0
0.08890596,-0.00231232,0.6481228,72.0,56.0,54.0
0.08956495,2.1987913E-4,0.64850813,73.0,55.0,56.0
0.08956495,0.0027485406,0.64850813,72.0,53.0,46.0
0.08890596,0.0052852887,0.6481228,74.0,52.0,48.0
0.08890596,0.007817824,0.6481228,78.0,58.0,66.0
0.08890596,0.010350361,0.6481228,74.0,57.0,32.0
0.08890596,0.012882897,0.6481228,79.0,52.0,41.0
0.08824497,0.015439091,0.6477362,76.0,55.0,55.0
0.08824497,0.017975513,0.6477362,73.0,48.0,56.0
0.08890596,0.020480506,0.6481228,76.0,49.0,16.0
0.090221904,0.022942731,0.64889234,72.0,57.0,19.0
0.09087685,0.025428684,0.6492753,78.0,54.0,26.0
0.09087685,0.027949631,0.6492753,79.0,56.0,35.0
0.08890596,0.03061065,0.6481228,71.0,50.0,32.0
0.08890596,0.033143185,0.6481228,69.0,48.0,32.0
0.08890596,0.035675723,0.6481228,65.0,43.0,35.0
0.08890596,0.03820826,0.6481228,72.0,58.0,42.0
0.08824497,0.04080332,0.6477362,76.0,60.0,47.0
0.08824497,0.04333974,0.6477362,79.0,56.0,52.0
0.08890596,0.045805868,0.6481228,79.0,58.0,54.0
0.09087685,0.048117213,0.6492753,68.0,53.0,49.0
0.091529794,0.05056104,0.6496572,69.0,43.0,52.0
0.090221904,0.053240314,0.64889234,72.0,51.0,28.0
0.08890596,0.055936012,0.6481228,75.0,51.0,29.0
0.08824497,0.058558278,0.6477362,78.0,48.0,32.0
0.08824497,0.0610947,0.6477362,82.0,55.0,52.0
0.08890596,0.06353362,0.6481228,73.0,56.0,49.0
0.08890596,0.06606616,0.6481228,69.0,47.0,40.0
0.08890596,0.068598695,0.6481228,66.0,45.0,41.0
0.09027796,-0.0526404,0.6518254,138.0,126.0,87.0
0.09027796,-0.050123293,0.6518254,90.0,74.0,108.0
0.09027796,-0.04760618,0.6518254,61.0,50.0,71.0
0.09027796,-0.045089073,0.6518254,65.0,43.0,58.0
0.08962311,-0.0426369,0.6514469,68.0,47.0,54.0
0.08962311,-0.040115952,0.6514469,77.0,58.0,60.0
0.08896624,-0.037652437,0.6510672,74.0,70.0,80.0
0.08830737,-0.03518138,0.6506863,78.0,72.0,83.0
0.08896624,-0.03260284,0.6510672,73.0,69.0,102.0
0.08896624,-0.03007804,0.6510672,76.0,73.0,101.0
0.08962311,-0.027511215,0.6514469,73.0,71.0,113.0
0.08962311,-0.024990266,0.6514469,67.0,73.0,100.0
0.08962311,-0.02246932,0.6514469,65.0,74.0,107.0
0.08962311,-0.019948373,0.6514469,67.0,74.0,99.0
0.09027796,-0.017400883,0.6518254,65.0,74.0,103.0
0.08962311,-0.014906477,0.6514469,63.0,70.0,129.0
0.08962311,-0.0123855295,0.6514469,61.0,79.0,90.0
0.08962311,-0.009864582,0.6514469,63.0,71.0,95.0
0.08962311,-0.007343634,0.6514469,64.0,71.0,102.0
0.08962311,-0.004822687,0.6514469,65.0,64.0,96.0
0.08962311,-0.002301739,0.6514469,72.0,56.0,69.0
0.09027796,2.1887453E-4,0.6518254,64.0,56.0,63.0
0.08962311,0.002740156,0.6514469,66.0,51.0,56.0
0.08830737,0.005277202,0.6506863,69.0,52.0,12.0
0.08830737,0.0078058634,0.6506863,72.0,60.0,56.0
0.08830737,0.010334525,0.6506863,70.0,55.0,56.0
0.08830737,0.012863186,0.6506863,75.0,51.0,34.0
0.087646455,0.015415434,0.65030426,73.0,44.0,28.0
0.08830737,0.017920509,0.6506863,73.0,49.0,47.0
0.08896624,0.020417932,0.6510672,74.0,56.0,63.0
0.09027796,0.022872848,0.6518254,74.0,53.0,49.0
0.09027796,0.025389958,0.6518254,73.0,54.0,13.0
0.08962311,0.027949631,0.6514469,77.0,52.0,47.0
0.08830737,0.030563816,0.6506863,77.0,52.0,53.0
0.087646455,0.033143185,0.65030426,75.0,50.0,18.0
0.087646455,0.035675723,0.65030426,62.0,45.0,73.0
0.08830737,0.0381498,0.6506863,64.0,54.0,103.0
0.08830737,0.04067846,0.6506863,63.0,50.0,55.0
0.08830737,0.043207124,0.6506863,75.0,51.0,58.0
0.08896624,0.045665916,0.6510672,78.0,52.0,37.0
0.08962311,0.048117213,0.6514469,73.0,43.0,49.0
0.08962311,0.050638158,0.6514469,83.0,44.0,55.0
0.08896624,0.053240314,0.6510672,76.0,47.0,45.0
0.08896624,0.05576511,0.6510672,72.0,50.0,53.0
0.08830737,0.05837909,0.6506863,75.0,52.0,36.0
0.08896624,0.06081471,0.6510672,73.0,47.0,37.0
0.08896624,0.06333951,0.6510672,63.0,42.0,22.0
0.08896624,0.06586431,0.6510672,50.0,38.0,17.0
0.08830737,0.06849374,0.6506863,57.0,39.0,29.0
0.0909845,-0.054906644,0.6551125,144.0,116.0,117.0
0.089680925,-0.052560348,0.65436774,140.0,113.0,121.0
0.08902613,-0.050123293,0.65399367,88.0,54.0,111.0
0.08902613,-0.04760618,0.65399367,59.0,41.0,72.0
0.08902613,-0.045089073,0.65399367,56.0,36.0,38.0
0.08902613,-0.042571966,0.65399367,58.0,26.0,31.0
0.08902613,-0.040054858,0.65399367,69.0,53.0,63.0
0.08836937,-0.037595004,0.6536184,71.0,64.0,74.0
0.08836937,-0.03507406,0.6536184,80.0,74.0,85.0
0.08836937,-0.03255311,0.6536184,71.0,70.0,89.0
0.08836937,-0.030032162,0.6536184,64.0,76.0,97.0
0.08902613,-0.027469316,0.65399367,66.0,75.0,98.0
0.08902613,-0.024952209,0.65399367,63.0,77.0,117.0
0.08902613,-0.0224351,0.65399367,54.0,81.0,130.0
0.08902613,-0.019917991,0.65399367,59.0,76.0,106.0
0.08902613,-0.017400883,0.65399367,60.0,78.0,101.0
0.08902613,-0.014883775,0.65399367,55.0,61.0,110.0
0.08902613,-0.012366667,0.65399367,59.0,71.0,109.0
0.089680925,-0.00983458,0.65436774,59.0,67.0,106.0
0.08902613,-0.0073324502,0.65399367,62.0,71.0,107.0
0.08902613,-0.004815342,0.65399367,54.0,68.0,116.0
0.08836937,-0.002301739,0.6536184,59.0,67.0,97.0
0.08902613,2.1887453E-4,0.65399367,60.0,65.0,100.0
0.089680925,0.0027318222,0.65436774,62.0,56.0,95.0
0.08836937,0.0052611036,0.6536184,64.0,62.0,101.0
0.08771059,0.007793939,0.65324205,63.0,53.0,84.0
0.08836937,0.010302998,0.6536184,66.0,63.0,101.0
0.08836937,0.012823946,0.6536184,66.0,55.0,76.0
0.08771059,0.015368335,0.65324205,67.0,55.0,91.0
0.08771059,0.017893134,0.65324205,68.0,53.0,62.0
0.089680925,0.020324785,0.65436774,64.0,54.0,48.0
0.089680925,0.022838067,0.65436774,65.0,43.0,42.0
0.08902613,0.025389958,0.65399367,64.0,55.0,19.0
0.0903337,0.027822321,0.6547407,59.0,55.0,40.0
0.08902613,0.030424174,0.65399367,70.0,49.0,45.0
0.08836937,0.032991525,0.6536184,69.0,41.0,18.0
0.08836937,0.035512473,0.6536184,64.0,44.0,49.0
0.08836937,0.038033422,0.6536184,55.0,42.0,29.0
0.08902613,0.040492605,0.65399367,60.0,40.0,33.0
0.08836937,0.043075316,0.6536184,67.0,49.0,40.0
0.08836937,0.045596264,0.6536184,67.0,47.0,64.0
0.08902613,0.048043933,0.65399367,64.0,37.0,56.0
0.08902613,0.05056104,0.65399367,70.0,38.0,52.0
0.08902613,0.05307815,0.65399367,63.0,41.0,47.0
0.08836937,0.055680055,0.6536184,64.0,45.0,54.0
0.08771059,0.05828991,0.65324205,69.0,46.0,52.0
0.08771059,0.06081471,0.65324205,66.0,41.0,43.0
0.0870498,0.06343641,0.6528645,63.0,41.0,34.0
0.08836937,0.065763846,0.6536184,56.0,40.0,33.0
0.08771059,0.0683891,0.65324205,50.0,26.0,36.0
0.08908567,-0.054990012,0.6569023,134.0,112.0,110.0
0.08843099,-0.052560348,0.65653265,136.0,115.0,110.0
0.0877743,-0.050123293,0.6561619,93.0,69.0,75.0
0.0877743,-0.04760618,0.6561619,76.0,55.0,74.0
0.0877743,-0.045089073,0.6561619,72.0,52.0,58.0
0.08843099,-0.042507228,0.65653265,75.0,58.0,75.0
0.08843099,-0.039993946,0.65653265,78.0,61.0,55.0
0.0877743,-0.03753775,0.6561619,70.0,57.0,49.0
0.08711562,-0.03507406,0.65579,75.0,55.0,47.0
0.08711562,-0.03255311,0.65579,76.0,60.0,55.0
0.08711562,-0.030032162,0.65579,77.0,64.0,77.0
0.0877743,-0.027469316,0.6561619,73.0,74.0,84.0
0.0877743,-0.024952209,0.6561619,68.0,73.0,99.0
0.0877743,-0.0224351,0.6561619,67.0,80.0,107.0
0.08711562,-0.019948373,0.65579,66.0,82.0,107.0
0.08711562,-0.017427424,0.65579,62.0,73.0,113.0
0.08843099,-0.014861141,0.65653265,63.0,63.0,106.0
0.08843099,-0.012347861,0.65653265,68.0,74.0,101.0
0.08908567,-0.009819648,0.6569023,70.0,62.0,95.0
0.08843099,-0.0073213,0.65653265,65.0,67.0,92.0
0.0877743,-0.004815342,0.6561619,69.0,63.0,87.0
0.08711562,-0.002301739,0.65579,60.0,61.0,41.0
0.08843099,2.1854168E-4,0.65653265,61.0,67.0,81.0
0.086454935,0.0027443417,0.6554169,59.0,55.0,83.0
0.08908567,0.0052371393,0.6569023,60.0,54.0,90.0
0.08908567,0.007746604,0.6569023,61.0,55.0,86.0
0.0877743,0.010287308,0.6561619,60.0,60.0,81.0
0.0877743,0.012804416,0.6561619,64.0,62.0,79.0
0.0877743,0.015321524,0.6561619,66.0,62.0,68.0
0.08843099,0.017811505,0.65653265,67.0,54.0,47.0
0.08973837,0.02026316,0.6572709,75.0,57.0,54.0
0.08843099,0.022838067,0.65653265,83.0,60.0,40.0
0.08843099,0.025351347,0.65653265,83.0,66.0,66.0
0.08973837,0.02778014,0.6572709,80.0,72.0,74.0
0.08973837,0.0302858,0.6572709,77.0,56.0,49.0
0.08908567,0.035350714,0.6569023,75.0,62.0,45.0
0.08908567,0.037860177,0.6569023,67.0,49.0,82.0
0.08908567,0.040369645,0.6569023,65.0,50.0,58.0
0.08843099,0.042944312,0.65653265,72.0,53.0,35.0
0.08843099,0.04545759,0.65653265,56.0,37.0,26.0
0.0877743,0.048043933,0.6561619,66.0,46.0,59.0
0.0877743,0.05056104,0.6561619,71.0,54.0,76.0
0.0877743,0.05307815,0.6561619,74.0,51.0,39.0
0.0877743,0.055595256,0.6561619,69.0,49.0,48.0
0.08711562,0.058201,0.65579,70.0,47.0,54.0
